# .PCD v0.7 - Point Cloud Data file format
VERSION 0.7
FIELDS x y z
SIZE 4 4 4
TYPE F F F
COUNT 1 1 1
WIDTH 2007
HEIGHT 1
VIEWPOINT 0 0 0 1 0 0 0
POINTS 2007
DATA ascii
2.075 -0.47499999 1.275
2.075 -0.42500001 1.275
2.075 -0.57499999 1.325
2.075 -0.52499998 1.325
2.075 -0.57499999 1.375
2.075 -0.52499998 1.375
2.075 -0.47499999 1.325
2.075 -0.42500001 1.325
2.075 -0.47499999 1.375
2.075 -0.42500001 1.375
2.075 -0.77499998 1.425
2.075 -0.72500002 1.425
2.075 -0.77499998 1.475
2.075 -0.72500002 1.475
2.075 -0.67500001 1.425
2.075 -0.625 1.425
2.075 -0.67500001 1.475
2.075 -0.625 1.475
2.075 -0.77499998 1.525
2.075 -0.72500002 1.525
2.075 -0.77499998 1.575
2.075 -0.72500002 1.575
2.075 -0.67500001 1.525
2.075 -0.625 1.525
2.075 -0.67500001 1.575
2.075 -0.625 1.575
2.075 -0.57499999 1.425
2.075 -0.52499998 1.425
2.075 -0.57499999 1.475
2.075 -0.52499998 1.475
2.075 -0.47499999 1.425
2.075 -0.42500001 1.425
2.075 -0.47499999 1.475
2.075 -0.42500001 1.475
2.075 -0.57499999 1.525
2.075 -0.52499998 1.525
2.075 -0.57499999 1.575
2.075 -0.52499998 1.575
2.075 -0.47499999 1.525
2.075 -0.42500001 1.525
2.075 -0.47499999 1.575
2.075 -0.42500001 1.575
2.075 -0.375 1.225
2.075 -0.375 1.275
2.075 -0.375 1.325
2.075 -0.32499999 1.325
2.075 -0.375 1.375
2.075 -0.32499999 1.375
2.075 -0.27500001 1.325
2.075 -0.27500001 1.375
2.075 -0.22499999 1.375
2.075 -0.175 1.375
2.075 -0.125 1.375
2.075 -0.075000003 1.375
2.075 -0.025 1.375
2.125 -0.025 1.375
2.075 -0.375 1.425
2.075 -0.32499999 1.425
2.075 -0.375 1.475
2.075 -0.32499999 1.475
2.075 -0.27500001 1.425
2.075 -0.22499999 1.425
2.075 -0.27500001 1.475
2.075 -0.22499999 1.475
2.075 -0.375 1.525
2.075 -0.32499999 1.525
2.075 -0.375 1.575
2.075 -0.32499999 1.575
2.075 -0.27500001 1.525
2.075 -0.22499999 1.525
2.075 -0.27500001 1.575
2.075 -0.22499999 1.575
2.125 -0.22499999 1.575
2.075 -0.175 1.425
2.075 -0.125 1.425
2.075 -0.175 1.475
2.075 -0.125 1.475
2.075 -0.075000003 1.425
2.075 -0.025 1.425
2.075 -0.075000003 1.475
2.075 -0.025 1.475
2.125 -0.075000003 1.475
2.125 -0.025 1.475
2.075 -0.175 1.525
2.075 -0.125 1.525
2.075 -0.175 1.575
2.075 -0.125 1.575
2.125 -0.175 1.575
2.075 -0.075000003 1.525
2.075 -0.025 1.525
2.075 -0.075000003 1.575
2.075 -0.025 1.575
2.0250001 -2.425 1.625
2.075 -2.425 1.625
2.0250001 -2.4749999 1.675
2.075 -2.425 1.675
2.075 -2.5250001 1.725
2.0250001 -2.5250001 1.775
2.075 -2.4749999 1.725
2.075 -2.425 1.725
2.0250001 -2.4749999 1.775
2.075 -2.4749999 1.775
2.075 -2.425 1.775
2.0250001 -2.625 1.925
2.0250001 -2.675 1.975
2.075 -2.625 1.975
2.075 -2.575 1.825
2.075 -2.5250001 1.825
2.075 -2.575 1.875
2.075 -2.5250001 1.875
2.075 -2.4749999 1.825
2.075 -2.425 1.825
2.075 -2.4749999 1.875
2.075 -2.425 1.875
2.0250001 -2.575 1.925
2.0250001 -2.5250001 1.925
2.075 -2.5250001 1.925
2.0250001 -2.575 1.975
2.075 -2.575 1.975
2.075 -2.5250001 1.975
2.0250001 -2.4749999 1.925
2.075 -2.425 1.925
2.075 -2.4749999 1.975
2.075 -2.425 1.975
2.075 -2.825 2.175
2.075 -2.825 2.2249999
2.075 -2.875 2.2750001
2.075 -2.825 2.2750001
2.075 -2.825 2.325
2.075 -2.7249999 2.0250001
2.075 -2.7249999 2.075
2.075 -2.675 2.0250001
2.075 -2.625 2.0250001
2.075 -2.675 2.075
2.075 -2.625 2.075
2.075 -2.7249999 2.125
2.075 -2.7750001 2.175
2.075 -2.7249999 2.175
2.075 -2.675 2.125
2.075 -2.625 2.125
2.075 -2.675 2.175
2.075 -2.625 2.175
2.075 -2.575 2.0250001
2.075 -2.5250001 2.0250001
2.075 -2.575 2.075
2.075 -2.5250001 2.075
2.075 -2.4749999 2.0250001
2.075 -2.425 2.0250001
2.075 -2.4749999 2.075
2.075 -2.425 2.075
2.075 -2.575 2.125
2.075 -2.5250001 2.125
2.075 -2.575 2.175
2.075 -2.5250001 2.175
2.075 -2.4749999 2.125
2.075 -2.425 2.125
2.075 -2.4749999 2.175
2.075 -2.425 2.175
2.075 -2.7750001 2.2249999
2.075 -2.7249999 2.2249999
2.075 -2.7750001 2.2750001
2.075 -2.7249999 2.2750001
2.075 -2.675 2.2249999
2.075 -2.625 2.2249999
2.075 -2.675 2.2750001
2.0250001 -2.625 2.2750001
2.075 -2.625 2.2750001
2.075 -2.7750001 2.325
2.075 -2.675 2.325
2.075 -2.575 2.2249999
2.075 -2.5250001 2.2249999
2.075 -2.575 2.2750001
2.0250001 -2.5250001 2.2750001
2.075 -2.5250001 2.2750001
2.075 -2.4749999 2.2249999
2.075 -2.425 2.2249999
2.0250001 -2.4749999 2.2750001
2.075 -2.4749999 2.2750001
2.0250001 -2.425 2.2750001
2.075 -2.425 2.2750001
2.0250001 -2.375 1.625
2.075 -2.375 1.625
2.0250001 -2.325 1.625
2.075 -2.325 1.625
2.0250001 -2.375 1.675
2.075 -2.375 1.675
2.075 -2.325 1.675
2.075 -2.2750001 1.625
2.0250001 -2.2249999 1.625
2.075 -2.2249999 1.625
2.075 -2.2750001 1.675
2.075 -2.2249999 1.675
2.075 -2.375 1.725
2.075 -2.325 1.725
2.0250001 -2.375 1.775
2.075 -2.375 1.775
2.0250001 -2.325 1.775
2.075 -2.325 1.775
2.075 -2.2750001 1.725
2.075 -2.2249999 1.725
2.075 -2.2750001 1.775
2.075 -2.2249999 1.775
2.075 -2.175 1.625
2.075 -2.125 1.625
2.075 -2.175 1.675
2.075 -2.125 1.675
2.075 -2.075 1.625
2.075 -2.0250001 1.625
2.0250001 -2.075 1.675
2.075 -2.075 1.675
2.075 -2.0250001 1.675
2.075 -2.175 1.725
2.075 -2.125 1.725
2.0250001 -2.175 1.775
2.075 -2.175 1.775
2.0250001 -2.125 1.775
2.075 -2.125 1.775
2.075 -2.075 1.725
2.075 -2.0250001 1.725
2.0250001 -2.075 1.775
2.075 -2.075 1.775
2.0250001 -2.0250001 1.775
2.075 -2.0250001 1.775
2.075 -2.375 1.825
2.075 -2.325 1.825
2.075 -2.375 1.875
2.075 -2.325 1.875
2.075 -2.2750001 1.825
2.075 -2.2249999 1.825
2.075 -2.2750001 1.875
2.075 -2.2249999 1.875
2.0250001 -2.375 1.925
2.075 -2.375 1.925
2.0250001 -2.325 1.925
2.075 -2.375 1.975
2.075 -2.325 1.975
2.0250001 -2.2750001 1.925
2.075 -2.2750001 1.925
2.0250001 -2.2249999 1.925
2.075 -2.2750001 1.975
2.075 -2.2249999 1.975
2.0250001 -2.175 1.825
2.075 -2.175 1.825
2.0250001 -2.125 1.825
2.075 -2.125 1.825
2.075 -2.175 1.875
2.075 -2.125 1.875
2.0250001 -2.075 1.825
2.075 -2.075 1.825
2.075 -2.0250001 1.825
2.075 -2.075 1.875
2.075 -2.0250001 1.875
2.0250001 -2.175 1.925
2.0250001 -2.125 1.925
2.075 -2.175 1.975
2.075 -2.125 1.975
2.0250001 -2.075 1.925
2.0250001 -2.0250001 1.925
2.075 -2.075 1.975
2.075 -2.0250001 1.975
2.0250001 -1.975 1.625
2.075 -1.975 1.625
2.075 -1.925 1.625
2.075 -1.975 1.675
2.075 -1.925 1.675
2.075 -1.875 1.625
2.075 -1.825 1.625
2.075 -1.875 1.675
2.075 -1.825 1.675
2.075 -1.975 1.725
2.075 -1.925 1.725
2.075 -1.975 1.775
2.075 -1.925 1.775
2.075 -1.875 1.725
2.075 -1.825 1.725
2.075 -1.875 1.775
2.075 -1.825 1.775
2.075 -1.775 1.625
2.075 -1.725 1.625
2.075 -1.775 1.675
2.075 -1.725 1.675
2.075 -1.675 1.625
2.075 -1.625 1.625
2.075 -1.675 1.675
2.075 -1.625 1.675
2.075 -1.775 1.725
2.075 -1.725 1.725
2.075 -1.775 1.775
2.075 -1.725 1.775
2.075 -1.675 1.725
2.075 -1.625 1.725
2.075 -1.675 1.775
2.075 -1.625 1.775
2.075 -1.975 1.825
2.075 -1.925 1.825
2.075 -1.975 1.875
2.075 -1.925 1.875
2.075 -1.875 1.825
2.075 -1.825 1.825
2.075 -1.875 1.875
2.075 -1.825 1.875
2.0250001 -1.975 1.925
2.0250001 -1.925 1.925
2.0250001 -1.975 1.975
2.075 -1.975 1.975
2.075 -1.925 1.975
2.0250001 -1.875 1.925
2.075 -1.875 1.925
2.0250001 -1.825 1.925
2.075 -1.825 1.925
2.075 -1.875 1.975
2.075 -1.825 1.975
2.075 -1.775 1.825
2.075 -1.725 1.825
2.075 -1.775 1.875
2.075 -1.725 1.875
2.075 -1.675 1.825
2.075 -1.625 1.825
2.075 -1.675 1.875
2.075 -1.625 1.875
2.075 -1.775 1.925
2.075 -1.725 1.925
2.075 -1.775 1.975
2.075 -1.725 1.975
2.075 -1.675 1.925
2.075 -1.625 1.925
2.075 -1.675 1.975
2.075 -1.625 1.975
2.075 -2.375 2.0250001
2.075 -2.325 2.0250001
2.075 -2.375 2.075
2.0250001 -2.325 2.075
2.075 -2.325 2.075
2.075 -2.2750001 2.0250001
2.075 -2.2249999 2.0250001
2.0250001 -2.2750001 2.075
2.075 -2.2750001 2.075
2.0250001 -2.2249999 2.075
2.075 -2.2249999 2.075
2.075 -2.375 2.125
2.075 -2.325 2.125
2.075 -2.375 2.175
2.075 -2.325 2.175
2.075 -2.2750001 2.125
2.075 -2.2249999 2.125
2.075 -2.2750001 2.175
2.075 -2.2249999 2.175
2.075 -2.175 2.0250001
2.075 -2.125 2.0250001
2.0250001 -2.175 2.075
2.075 -2.175 2.075
2.0250001 -2.125 2.075
2.075 -2.125 2.075
2.075 -2.075 2.0250001
2.075 -2.0250001 2.0250001
2.0250001 -2.075 2.075
2.075 -2.075 2.075
2.0250001 -2.0250001 2.075
2.075 -2.0250001 2.075
2.075 -2.175 2.125
2.075 -2.125 2.125
2.075 -2.175 2.175
2.075 -2.125 2.175
2.075 -2.075 2.125
2.075 -2.0250001 2.125
2.075 -2.075 2.175
2.075 -2.0250001 2.175
2.075 -2.375 2.2249999
2.075 -2.325 2.2249999
2.075 -2.375 2.2750001
2.0250001 -2.325 2.2750001
2.075 -2.325 2.2750001
2.075 -2.2750001 2.2249999
2.075 -2.2249999 2.2249999
2.0250001 -2.2750001 2.2750001
2.075 -2.2750001 2.2750001
2.0250001 -2.2249999 2.2750001
2.075 -2.2249999 2.2750001
2.075 -2.175 2.2249999
2.075 -2.125 2.2249999
2.0250001 -2.175 2.2750001
2.075 -2.175 2.2750001
2.0250001 -2.125 2.2750001
2.075 -2.125 2.2750001
2.075 -2.075 2.2249999
2.075 -2.0250001 2.2249999
2.0250001 -2.075 2.2750001
2.075 -2.075 2.2750001
2.0250001 -2.0250001 2.2750001
2.075 -2.0250001 2.2750001
2.075 -1.975 2.0250001
2.075 -1.925 2.0250001
2.0250001 -1.975 2.075
2.075 -1.975 2.075
2.0250001 -1.925 2.075
2.075 -1.925 2.075
2.075 -1.875 2.0250001
2.075 -1.825 2.0250001
2.0250001 -1.875 2.075
2.075 -1.875 2.075
2.075 -1.825 2.075
2.075 -1.975 2.125
2.075 -1.925 2.125
2.075 -1.975 2.175
2.075 -1.925 2.175
2.075 -1.875 2.125
2.075 -1.825 2.125
2.075 -1.875 2.175
2.075 -1.825 2.175
2.075 -1.775 2.0250001
2.075 -1.725 2.0250001
2.075 -1.775 2.075
2.075 -1.725 2.075
2.075 -1.675 2.0250001
2.075 -1.625 2.0250001
2.075 -1.675 2.075
2.075 -1.625 2.075
2.075 -1.775 2.125
2.075 -1.725 2.125
2.075 -1.775 2.175
2.075 -1.725 2.175
2.075 -1.675 2.125
2.075 -1.625 2.125
2.075 -1.675 2.175
2.075 -1.625 2.175
2.075 -1.975 2.2249999
2.075 -1.925 2.2249999
2.0250001 -1.975 2.2750001
2.075 -1.975 2.2750001
2.0250001 -1.925 2.2750001
2.075 -1.925 2.2750001
2.075 -1.875 2.2249999
2.075 -1.825 2.2249999
2.075 -1.875 2.2750001
2.0250001 -1.825 2.2750001
2.075 -1.825 2.2750001
2.075 -1.975 2.325
2.075 -1.775 2.2249999
2.075 -1.725 2.2249999
2.0250001 -1.775 2.2750001
2.075 -1.775 2.2750001
2.0250001 -1.725 2.2750001
2.075 -1.725 2.2750001
2.075 -1.675 2.2249999
2.075 -1.625 2.2249999
2.075 -1.675 2.2750001
2.075 -1.625 2.2750001
2.075 -1.575 1.625
2.075 -1.525 1.625
2.075 -1.575 1.675
2.075 -1.525 1.675
2.075 -1.475 1.625
2.075 -1.425 1.625
2.075 -1.475 1.675
2.075 -1.425 1.675
2.075 -1.575 1.725
2.075 -1.525 1.725
2.075 -1.575 1.775
2.075 -1.525 1.775
2.075 -1.475 1.725
2.075 -1.425 1.725
2.075 -1.475 1.775
2.075 -1.425 1.775
2.075 -1.375 1.625
2.075 -1.325 1.625
2.075 -1.375 1.675
2.075 -1.325 1.675
2.075 -1.275 1.625
2.075 -1.225 1.625
2.075 -1.275 1.675
2.075 -1.225 1.675
2.075 -1.375 1.725
2.075 -1.325 1.725
2.075 -1.375 1.775
2.075 -1.325 1.775
2.075 -1.275 1.725
2.075 -1.225 1.725
2.075 -1.275 1.775
2.075 -1.225 1.775
2.075 -1.575 1.825
2.075 -1.525 1.825
2.075 -1.575 1.875
2.075 -1.525 1.875
2.075 -1.475 1.825
2.075 -1.425 1.825
2.075 -1.475 1.875
2.075 -1.425 1.875
2.075 -1.575 1.925
2.075 -1.525 1.925
2.075 -1.575 1.975
2.075 -1.525 1.975
2.075 -1.475 1.925
2.075 -1.425 1.925
2.075 -1.475 1.975
2.075 -1.425 1.975
2.075 -1.375 1.825
2.075 -1.325 1.825
2.075 -1.375 1.875
2.075 -1.325 1.875
2.075 -1.275 1.825
2.075 -1.225 1.825
2.075 -1.275 1.875
2.075 -1.225 1.875
2.075 -1.375 1.925
2.075 -1.325 1.925
2.075 -1.375 1.975
2.075 -1.325 1.975
2.075 -1.275 1.925
2.075 -1.225 1.925
2.075 -1.275 1.975
2.075 -1.225 1.975
2.075 -1.175 1.625
2.075 -1.125 1.625
2.075 -1.175 1.675
2.075 -1.125 1.675
2.075 -1.075 1.625
2.075 -1.025 1.625
2.075 -1.075 1.675
2.075 -1.025 1.675
2.075 -1.175 1.725
2.075 -1.125 1.725
2.075 -1.175 1.775
2.075 -1.125 1.775
2.075 -1.075 1.725
2.075 -1.025 1.725
2.075 -1.075 1.775
2.075 -1.025 1.775
2.075 -0.97500002 1.625
2.075 -0.92500001 1.625
2.075 -0.97500002 1.675
2.075 -0.92500001 1.675
2.075 -0.875 1.625
2.075 -0.82499999 1.625
2.075 -0.875 1.675
2.075 -0.82499999 1.675
2.075 -0.97500002 1.725
2.075 -0.92500001 1.725
2.075 -0.97500002 1.775
2.075 -0.92500001 1.775
2.075 -0.875 1.725
2.075 -0.82499999 1.725
2.075 -0.875 1.775
2.075 -0.82499999 1.775
2.075 -1.175 1.825
2.075 -1.125 1.825
2.075 -1.175 1.875
2.075 -1.125 1.875
2.075 -1.075 1.825
2.075 -1.025 1.825
2.075 -1.075 1.875
2.075 -1.025 1.875
2.075 -1.175 1.925
2.075 -1.125 1.925
2.075 -1.175 1.975
2.075 -1.125 1.975
2.075 -1.075 1.925
2.075 -1.025 1.925
2.075 -1.075 1.975
2.075 -1.025 1.975
2.075 -0.97500002 1.825
2.075 -0.92500001 1.825
2.075 -0.97500002 1.875
2.075 -0.92500001 1.875
2.075 -0.875 1.825
2.075 -0.82499999 1.825
2.075 -0.875 1.875
2.075 -0.82499999 1.875
2.075 -0.97500002 1.925
2.075 -0.92500001 1.925
2.075 -0.97500002 1.975
2.075 -0.92500001 1.975
2.075 -0.875 1.925
2.075 -0.82499999 1.925
2.075 -0.875 1.975
2.075 -0.82499999 1.975
2.075 -1.575 2.0250001
2.075 -1.525 2.0250001
2.075 -1.575 2.075
2.075 -1.525 2.075
2.075 -1.475 2.0250001
2.075 -1.425 2.0250001
2.075 -1.475 2.075
2.075 -1.425 2.075
2.075 -1.575 2.125
2.075 -1.525 2.125
2.075 -1.575 2.175
2.075 -1.525 2.175
2.075 -1.475 2.125
2.075 -1.425 2.125
2.075 -1.475 2.175
2.075 -1.425 2.175
2.075 -1.375 2.0250001
2.075 -1.325 2.0250001
2.075 -1.375 2.075
2.075 -1.325 2.075
2.075 -1.275 2.0250001
2.075 -1.225 2.0250001
2.075 -1.275 2.075
2.075 -1.225 2.075
2.075 -1.375 2.125
2.075 -1.325 2.125
2.075 -1.375 2.175
2.075 -1.325 2.175
2.075 -1.275 2.125
2.075 -1.225 2.125
2.075 -1.275 2.175
2.075 -1.225 2.175
2.075 -1.575 2.2249999
2.075 -1.525 2.2249999
2.075 -1.575 2.2750001
2.075 -1.525 2.2750001
2.075 -1.475 2.2249999
2.075 -1.425 2.2249999
2.075 -1.475 2.2750001
2.0250001 -1.425 2.2750001
2.075 -1.425 2.2750001
2.075 -1.475 2.325
2.075 -1.425 2.325
2.075 -1.375 2.2249999
2.075 -1.325 2.2249999
2.075 -1.375 2.2750001
2.075 -1.325 2.2750001
2.075 -1.275 2.2249999
2.075 -1.225 2.2249999
2.075 -1.275 2.2750001
2.075 -1.225 2.2750001
2.075 -1.325 2.325
2.075 -1.225 2.325
2.075 -1.175 2.0250001
2.075 -1.125 2.0250001
2.075 -1.175 2.075
2.075 -1.125 2.075
2.075 -1.075 2.0250001
2.075 -1.025 2.0250001
2.075 -1.075 2.075
2.075 -1.025 2.075
2.075 -1.175 2.125
2.075 -1.125 2.125
2.075 -1.175 2.175
2.075 -1.125 2.175
2.075 -1.075 2.125
2.075 -1.025 2.125
2.075 -1.075 2.175
2.075 -1.025 2.175
2.075 -0.97500002 2.0250001
2.075 -0.92500001 2.0250001
2.075 -0.97500002 2.075
2.075 -0.92500001 2.075
2.075 -0.875 2.0250001
2.075 -0.82499999 2.0250001
2.075 -0.875 2.075
2.075 -0.82499999 2.075
2.075 -0.97500002 2.125
2.075 -0.92500001 2.125
2.075 -0.97500002 2.175
2.075 -0.92500001 2.175
2.075 -0.875 2.125
2.075 -0.82499999 2.125
2.075 -0.875 2.175
2.075 -0.82499999 2.175
2.075 -1.175 2.2249999
2.075 -1.125 2.2249999
2.075 -1.175 2.2750001
2.075 -1.125 2.2750001
2.075 -1.075 2.2249999
2.075 -1.025 2.2249999
2.075 -1.075 2.2750001
2.075 -1.025 2.2750001
2.075 -1.175 2.325
2.075 -1.125 2.325
2.075 -1.075 2.325
2.075 -1.025 2.325
2.075 -0.97500002 2.2249999
2.075 -0.92500001 2.2249999
2.075 -0.97500002 2.2750001
2.075 -0.92500001 2.2750001
2.075 -0.875 2.2249999
2.075 -0.82499999 2.2249999
2.075 -0.875 2.2750001
2.075 -0.82499999 2.2750001
2.075 -0.97500002 2.325
2.075 -0.92500001 2.325
2.075 -0.875 2.325
2.075 -0.82499999 2.325
2.075 -0.77499998 1.625
2.075 -0.72500002 1.625
2.075 -0.77499998 1.675
2.075 -0.72500002 1.675
2.075 -0.67500001 1.625
2.075 -0.625 1.625
2.075 -0.67500001 1.675
2.075 -0.625 1.675
2.075 -0.77499998 1.725
2.075 -0.72500002 1.725
2.075 -0.77499998 1.775
2.075 -0.72500002 1.775
2.075 -0.67500001 1.725
2.075 -0.625 1.725
2.075 -0.67500001 1.775
2.075 -0.625 1.775
2.075 -0.57499999 1.625
2.075 -0.52499998 1.625
2.075 -0.57499999 1.675
2.075 -0.52499998 1.675
2.075 -0.47499999 1.625
2.075 -0.42500001 1.625
2.075 -0.47499999 1.675
2.075 -0.42500001 1.675
2.075 -0.57499999 1.725
2.075 -0.52499998 1.725
2.075 -0.57499999 1.775
2.075 -0.52499998 1.775
2.075 -0.47499999 1.725
2.075 -0.42500001 1.725
2.075 -0.47499999 1.775
2.075 -0.42500001 1.775
2.075 -0.77499998 1.825
2.075 -0.72500002 1.825
2.075 -0.77499998 1.875
2.075 -0.72500002 1.875
2.075 -0.67500001 1.825
2.075 -0.625 1.825
2.075 -0.67500001 1.875
2.075 -0.625 1.875
2.075 -0.77499998 1.925
2.075 -0.72500002 1.925
2.075 -0.77499998 1.975
2.075 -0.72500002 1.975
2.075 -0.67500001 1.925
2.075 -0.625 1.925
2.075 -0.67500001 1.975
2.075 -0.625 1.975
2.075 -0.57499999 1.825
2.075 -0.52499998 1.825
2.075 -0.57499999 1.875
2.075 -0.52499998 1.875
2.075 -0.47499999 1.825
2.075 -0.42500001 1.825
2.075 -0.47499999 1.875
2.075 -0.42500001 1.875
2.075 -0.57499999 1.925
2.075 -0.52499998 1.925
2.075 -0.57499999 1.975
2.075 -0.52499998 1.975
2.075 -0.47499999 1.925
2.075 -0.42500001 1.925
2.075 -0.47499999 1.975
2.075 -0.42500001 1.975
2.125 -0.42500001 1.925
2.075 -0.375 1.625
2.075 -0.32499999 1.625
2.075 -0.375 1.675
2.075 -0.32499999 1.675
2.125 -0.32499999 1.625
2.075 -0.27500001 1.625
2.075 -0.22499999 1.625
2.075 -0.27500001 1.675
2.075 -0.22499999 1.675
2.125 -0.27500001 1.625
2.125 -0.22499999 1.625
2.075 -0.375 1.725
2.075 -0.32499999 1.725
2.075 -0.375 1.775
2.075 -0.32499999 1.775
2.125 -0.32499999 1.775
2.075 -0.27500001 1.725
2.075 -0.22499999 1.725
2.075 -0.27500001 1.775
2.075 -0.22499999 1.775
2.125 -0.27500001 1.775
2.125 -0.22499999 1.775
2.075 -0.175 1.675
2.075 -0.125 1.675
2.125 -0.175 1.625
2.125 -0.125 1.625
2.075 -0.075000003 1.675
2.075 -0.025 1.675
2.125 -0.075000003 1.625
2.125 -0.025 1.625
2.125 -0.075000003 1.675
2.125 -0.025 1.675
2.075 -0.175 1.725
2.125 -0.175 1.725
2.125 -0.125 1.725
2.125 -0.175 1.775
2.125 -0.125 1.775
2.075 -0.075000003 1.725
2.075 -0.075000003 1.775
2.125 -0.025 1.725
2.125 -0.075000003 1.775
2.125 -0.025 1.775
2.075 -0.375 1.825
2.075 -0.32499999 1.825
2.075 -0.375 1.875
2.075 -0.32499999 1.875
2.075 -0.27500001 1.825
2.075 -0.22499999 1.825
2.075 -0.27500001 1.875
2.125 -0.27500001 1.875
2.125 -0.22499999 1.875
2.075 -0.375 1.925
2.075 -0.32499999 1.925
2.075 -0.375 1.975
2.075 -0.32499999 1.975
2.125 -0.32499999 1.925
2.075 -0.22499999 1.925
2.075 -0.27500001 1.975
2.075 -0.22499999 1.975
2.125 -0.27500001 1.925
2.125 -0.22499999 1.925
2.075 -0.175 1.825
2.075 -0.125 1.825
2.125 -0.175 1.875
2.125 -0.125 1.875
2.075 -0.075000003 1.825
2.075 -0.025 1.825
2.075 -0.075000003 1.875
2.075 -0.025 1.875
2.125 -0.075000003 1.875
2.075 -0.175 1.925
2.075 -0.175 1.975
2.075 -0.125 1.975
2.125 -0.175 1.925
2.125 -0.125 1.925
2.075 -0.075000003 1.975
2.075 -0.025 1.975
2.125 -0.075000003 1.925
2.125 -0.025 1.925
2.125 -0.025 1.975
2.075 -0.77499998 2.0250001
2.075 -0.72500002 2.0250001
2.075 -0.77499998 2.075
2.075 -0.72500002 2.075
2.075 -0.67500001 2.0250001
2.075 -0.625 2.0250001
2.075 -0.67500001 2.075
2.075 -0.625 2.075
2.075 -0.77499998 2.125
2.075 -0.72500002 2.125
2.075 -0.77499998 2.175
2.075 -0.72500002 2.175
2.075 -0.67500001 2.125
2.075 -0.625 2.125
2.075 -0.67500001 2.175
2.075 -0.625 2.175
2.075 -0.57499999 2.0250001
2.075 -0.52499998 2.0250001
2.075 -0.57499999 2.075
2.075 -0.52499998 2.075
2.075 -0.47499999 2.0250001
2.075 -0.42500001 2.0250001
2.075 -0.47499999 2.075
2.075 -0.42500001 2.075
2.075 -0.57499999 2.125
2.075 -0.52499998 2.125
2.075 -0.57499999 2.175
2.075 -0.52499998 2.175
2.075 -0.47499999 2.125
2.075 -0.42500001 2.125
2.075 -0.47499999 2.175
2.075 -0.42500001 2.175
2.075 -0.77499998 2.2249999
2.075 -0.72500002 2.2249999
2.075 -0.77499998 2.2750001
2.075 -0.72500002 2.2750001
2.075 -0.67500001 2.2249999
2.075 -0.625 2.2249999
2.075 -0.67500001 2.2750001
2.075 -0.625 2.2750001
2.075 -0.77499998 2.325
2.075 -0.72500002 2.325
2.075 -0.67500001 2.325
2.075 -0.625 2.325
2.075 -0.57499999 2.2249999
2.075 -0.52499998 2.2249999
2.075 -0.57499999 2.2750001
2.075 -0.52499998 2.2750001
2.075 -0.47499999 2.2249999
2.075 -0.42500001 2.2249999
2.075 -0.47499999 2.2750001
2.075 -0.42500001 2.2750001
2.125 -0.42500001 2.2249999
2.125 -0.42500001 2.2750001
2.075 -0.57499999 2.325
2.075 -0.52499998 2.325
2.075 -0.47499999 2.325
2.075 -0.42500001 2.325
2.075 -0.375 2.0250001
2.075 -0.32499999 2.0250001
2.075 -0.375 2.075
2.075 -0.32499999 2.075
2.125 -0.32499999 2.0250001
2.125 -0.375 2.075
2.125 -0.32499999 2.075
2.075 -0.27500001 2.0250001
2.075 -0.27500001 2.075
2.125 -0.27500001 2.0250001
2.125 -0.22499999 2.0250001
2.125 -0.27500001 2.075
2.125 -0.22499999 2.075
2.075 -0.375 2.125
2.075 -0.32499999 2.125
2.075 -0.375 2.175
2.075 -0.32499999 2.175
2.075 -0.27500001 2.125
2.075 -0.22499999 2.125
2.075 -0.27500001 2.175
2.075 -0.22499999 2.175
2.125 -0.27500001 2.175
2.075 -0.175 2.075
2.125 -0.175 2.075
2.125 -0.125 2.075
2.125 -0.075000003 2.075
2.125 -0.025 2.075
2.075 -0.175 2.125
2.075 -0.125 2.125
2.075 -0.175 2.175
2.075 -0.125 2.175
2.075 -0.075000003 2.125
2.075 -0.025 2.125
2.075 -0.075000003 2.175
2.125 -0.025 2.175
2.075 -0.375 2.2249999
2.075 -0.32499999 2.2249999
2.075 -0.375 2.2750001
2.075 -0.32499999 2.2750001
2.125 -0.375 2.2249999
2.125 -0.32499999 2.2249999
2.125 -0.375 2.2750001
2.125 -0.32499999 2.2750001
2.075 -0.27500001 2.2750001
2.075 -0.22499999 2.2750001
2.125 -0.27500001 2.2249999
2.125 -0.22499999 2.2249999
2.125 -0.27500001 2.2750001
2.125 -0.22499999 2.2750001
2.075 -0.375 2.325
2.075 -0.32499999 2.325
2.075 -0.27500001 2.325
2.075 -0.22499999 2.325
2.075 -0.175 2.2750001
2.075 -0.125 2.2750001
2.125 -0.175 2.2249999
2.125 -0.125 2.2249999
2.125 -0.175 2.2750001
2.125 -0.125 2.2750001
2.075 -0.075000003 2.2750001
2.125 -0.075000003 2.2249999
2.125 -0.025 2.2249999
2.125 -0.075000003 2.2750001
2.125 -0.025 2.2750001
2.075 -0.175 2.325
2.075 -0.125 2.325
2.125 -0.175 2.325
2.125 -0.125 2.325
2.075 -0.075000003 2.325
2.075 -0.025 2.325
2.125 -0.025 2.325
4.7249999 -1.825 0.375
4.6750002 -1.725 0.22499999
4.6750002 -1.675 0.22499999
4.6750002 -1.675 0.27500001
4.7750001 -1.775 0.375
4.7750001 -1.725 0.375
3.425 -2.925 1.325
3.4749999 -2.875 1.325
4.3249998 -1.375 0.375
4.1750002 -0.82499999 0.025
4.2750001 -0.875 0.025
4.375 -0.97500002 0.175
4.375 -0.92500001 0.175
4.375 -0.875 0.175
4.375 -0.97500002 0.22499999
4.375 -0.875 0.22499999
4.375 -0.67500001 0.075000003
4.375 -0.625 0.075000003
4.375 -0.42500001 0.42500001
4.375 -0.42500001 0.52499998
4.7249999 -0.625 0.57499999
4.7249999 -0.57499999 0.57499999
4.7249999 -0.52499998 0.57499999
4.125 -0.32499999 0.72500002
4.7750001 -1.525 1.025
4.5749998 -0.77499998 1.025
4.5749998 -0.72500002 1.025
4.0250001 -0.27500001 1.525
4.875 -0.375 0.27500001
0.42500001 0.025 0.025
0.47499999 0.025 0.025
0.42500001 0.075000003 0.025
0.47499999 0.075000003 0.025
0.52499998 0.025 0.025
0.57499999 0.025 0.025
0.52499998 0.075000003 0.025
0.57499999 0.075000003 0.025
0.42500001 0.125 0.025
0.47499999 0.125 0.025
0.42500001 0.175 0.025
0.47499999 0.175 0.025
0.52499998 0.125 0.025
0.57499999 0.125 0.025
0.52499998 0.175 0.025
0.57499999 0.175 0.025
0.625 0.025 0.025
0.67500001 0.025 0.025
0.625 0.075000003 0.025
0.67500001 0.075000003 0.025
0.72500002 0.025 0.025
0.77499998 0.025 0.025
0.72500002 0.075000003 0.025
0.77499998 0.075000003 0.025
0.625 0.125 0.025
0.67500001 0.125 0.025
0.625 0.175 0.025
0.67500001 0.175 0.025
0.72500002 0.125 0.025
0.77499998 0.125 0.025
0.72500002 0.175 0.025
0.77499998 0.175 0.025
0.42500001 0.22499999 0.025
0.47499999 0.22499999 0.025
0.42500001 0.27500001 0.025
0.47499999 0.27500001 0.025
0.52499998 0.22499999 0.025
0.57499999 0.22499999 0.025
0.52499998 0.27500001 0.025
0.57499999 0.27500001 0.025
0.42500001 0.32499999 0.025
0.47499999 0.32499999 0.025
0.42500001 0.375 0.025
0.47499999 0.375 0.025
0.52499998 0.32499999 0.025
0.57499999 0.32499999 0.025
0.52499998 0.375 0.025
0.57499999 0.375 0.025
0.625 0.22499999 0.025
0.67500001 0.22499999 0.025
0.625 0.27500001 0.025
0.67500001 0.27500001 0.025
0.72500002 0.22499999 0.025
0.77499998 0.22499999 0.025
0.72500002 0.27500001 0.025
0.77499998 0.27500001 0.025
0.625 0.32499999 0.025
0.67500001 0.32499999 0.025
0.625 0.375 0.025
0.67500001 0.375 0.025
0.67500001 0.375 0.075000003
0.72500002 0.32499999 0.025
0.77499998 0.32499999 0.025
0.72500002 0.375 0.025
0.77499998 0.375 0.025
0.47499999 0.42500001 0.025
0.52499998 0.42500001 0.025
0.57499999 0.42500001 0.025
0.52499998 0.47499999 0.025
0.57499999 0.47499999 0.025
0.57499999 0.52499998 0.025
0.625 0.42500001 0.025
0.67500001 0.42500001 0.025
0.625 0.47499999 0.025
0.67500001 0.47499999 0.025
0.72500002 0.42500001 0.025
0.77499998 0.42500001 0.025
0.72500002 0.47499999 0.025
0.625 0.52499998 0.025
0.67500001 0.52499998 0.025
0.625 0.57499999 0.025
0.67500001 0.57499999 0.025
0.625 0.57499999 0.075000003
0.72500002 0.52499998 0.025
0.72500002 0.57499999 0.025
0.72500002 0.625 0.025
0.77499998 0.625 0.025
0.77499998 0.67500001 0.025
0.77499998 0.72500002 0.025
0.77499998 0.32499999 0.42500001
0.72500002 0.375 0.42500001
0.77499998 0.375 0.42500001
0.72500002 0.375 0.47499999
0.77499998 0.375 0.47499999
0.67500001 0.42500001 0.42500001
0.625 0.47499999 0.42500001
0.67500001 0.47499999 0.42500001
0.67500001 0.42500001 0.47499999
0.67500001 0.47499999 0.47499999
0.72500002 0.42500001 0.42500001
0.72500002 0.47499999 0.42500001
0.72500002 0.42500001 0.47499999
0.77499998 0.42500001 0.47499999
0.72500002 0.47499999 0.47499999
0.77499998 0.47499999 0.47499999
0.625 0.52499998 0.42500001
0.67500001 0.52499998 0.42500001
0.625 0.57499999 0.42500001
0.625 0.52499998 0.47499999
0.67500001 0.52499998 0.47499999
0.625 0.57499999 0.47499999
0.72500002 0.52499998 0.47499999
0.77499998 0.67500001 0.42500001
0.82499999 0.025 0.025
0.875 0.025 0.025
0.82499999 0.075000003 0.025
0.875 0.075000003 0.025
0.92500001 0.025 0.025
0.97500002 0.025 0.025
0.92500001 0.075000003 0.025
0.97500002 0.075000003 0.025
0.92500001 0.025 0.075000003
0.97500002 0.025 0.075000003
0.92500001 0.075000003 0.075000003
0.97500002 0.075000003 0.075000003
0.82499999 0.125 0.025
0.875 0.125 0.025
0.82499999 0.175 0.025
0.875 0.175 0.025
0.92500001 0.125 0.025
0.97500002 0.125 0.025
0.92500001 0.175 0.025
0.97500002 0.175 0.025
0.92500001 0.125 0.075000003
0.97500002 0.125 0.075000003
0.92500001 0.175 0.075000003
0.92500001 0.025 0.125
0.97500002 0.025 0.125
0.92500001 0.075000003 0.125
0.97500002 0.075000003 0.125
0.92500001 0.025 0.175
0.92500001 0.075000003 0.175
0.97500002 0.075000003 0.175
0.92500001 0.125 0.125
0.97500002 0.125 0.125
0.92500001 0.175 0.125
0.92500001 0.125 0.175
0.92500001 0.175 0.175
0.97500002 0.175 0.175
1.075 0.175 0.025
1.175 0.175 0.025
0.82499999 0.22499999 0.025
0.875 0.22499999 0.025
0.82499999 0.27500001 0.025
0.875 0.27500001 0.025
0.875 0.22499999 0.075000003
0.875 0.27500001 0.075000003
0.92500001 0.22499999 0.025
0.97500002 0.22499999 0.025
0.92500001 0.27500001 0.025
0.97500002 0.27500001 0.025
0.92500001 0.22499999 0.075000003
0.97500002 0.22499999 0.075000003
0.92500001 0.27500001 0.075000003
0.82499999 0.32499999 0.025
0.82499999 0.375 0.025
0.875 0.375 0.025
0.82499999 0.375 0.075000003
0.875 0.375 0.075000003
0.92500001 0.32499999 0.025
0.97500002 0.32499999 0.025
0.92500001 0.375 0.025
0.97500002 0.375 0.025
0.92500001 0.32499999 0.075000003
0.97500002 0.32499999 0.075000003
0.875 0.22499999 0.125
0.875 0.27500001 0.125
0.875 0.22499999 0.175
0.92500001 0.22499999 0.125
0.97500002 0.22499999 0.125
0.92500001 0.27500001 0.125
0.92500001 0.22499999 0.175
0.97500002 0.22499999 0.175
0.97500002 0.27500001 0.175
0.97500002 0.32499999 0.125
0.97500002 0.375 0.125
0.97500002 0.32499999 0.175
0.97500002 0.375 0.175
1.075 0.22499999 0.025
1.025 0.27500001 0.025
1.025 0.22499999 0.075000003
1.175 0.22499999 0.025
1.125 0.27500001 0.025
1.175 0.27500001 0.025
1.025 0.375 0.025
1.025 0.22499999 0.125
1.075 0.22499999 0.125
1.025 0.27500001 0.125
1.025 0.27500001 0.175
1.025 0.32499999 0.175
1.025 0.375 0.175
1.125 0.375 0.175
1.175 0.375 0.175
0.92500001 0.025 0.22499999
0.92500001 0.075000003 0.22499999
0.97500002 0.075000003 0.22499999
0.92500001 0.025 0.27500001
0.92500001 0.075000003 0.27500001
0.97500002 0.075000003 0.27500001
0.92500001 0.125 0.22499999
0.97500002 0.125 0.22499999
0.92500001 0.125 0.27500001
0.97500002 0.125 0.27500001
0.875 0.025 0.32499999
0.875 0.025 0.375
0.92500001 0.025 0.32499999
0.92500001 0.075000003 0.32499999
0.97500002 0.075000003 0.32499999
0.92500001 0.025 0.375
0.92500001 0.075000003 0.375
0.97500002 0.075000003 0.375
0.92500001 0.125 0.32499999
0.92500001 0.125 0.375
1.025 0.22499999 0.22499999
1.225 0.175 0.025
1.275 0.175 0.025
1.225 0.22499999 0.025
1.275 0.22499999 0.025
1.225 0.375 0.175
1.425 0.27500001 0.025
1.475 0.27500001 0.025
1.525 0.22499999 0.025
1.575 0.27500001 0.025
1.575 0.32499999 0.025
0.82499999 0.42500001 0.025
0.875 0.42500001 0.025
0.875 0.57499999 0.125
0.92500001 0.57499999 0.125
1.175 0.42500001 0.175
0.82499999 0.625 0.025
0.82499999 0.67500001 0.025
0.875 0.625 0.075000003
0.875 0.67500001 0.075000003
0.92500001 0.67500001 0.025
0.97500002 0.67500001 0.025
0.92500001 0.625 0.075000003
0.92500001 0.67500001 0.075000003
0.82499999 0.72500002 0.025
0.875 0.77499998 0.025
0.92500001 0.72500002 0.025
0.97500002 0.72500002 0.025
0.92500001 0.77499998 0.025
0.97500002 0.77499998 0.025
0.875 0.625 0.125
0.82499999 0.67500001 0.125
0.875 0.67500001 0.125
0.92500001 0.625 0.125
0.97500002 0.625 0.125
0.92500001 0.67500001 0.125
0.92500001 0.625 0.175
0.92500001 0.67500001 0.175
0.82499999 0.72500002 0.125
0.97500002 0.77499998 0.125
1.025 0.72500002 0.025
1.025 0.77499998 0.025
1.025 0.77499998 0.125
0.875 0.625 0.27500001
0.92500001 0.625 0.22499999
0.92500001 0.67500001 0.22499999
0.92500001 0.625 0.27500001
0.92500001 0.67500001 0.27500001
0.92500001 0.72500002 0.27500001
1.225 0.42500001 0.175
1.375 0.42500001 0.22499999
1.375 0.42500001 0.27500001
1.425 0.42500001 0.22499999
1.425 0.47499999 0.22499999
1.425 0.42500001 0.27500001
0.92500001 0.025 0.42500001
0.92500001 0.075000003 0.42500001
0.97500002 0.075000003 0.42500001
0.92500001 0.025 0.47499999
0.92500001 0.075000003 0.47499999
0.97500002 0.075000003 0.47499999
0.92500001 0.125 0.42500001
0.97500002 0.125 0.42500001
0.92500001 0.125 0.47499999
0.92500001 0.025 0.52499998
0.97500002 0.025 0.52499998
0.92500001 0.075000003 0.52499998
0.97500002 0.075000003 0.52499998
0.97500002 0.025 0.57499999
0.92500001 0.075000003 0.57499999
0.97500002 0.075000003 0.57499999
0.92500001 0.125 0.52499998
0.97500002 0.125 0.52499998
0.92500001 0.125 0.57499999
0.97500002 0.125 0.57499999
0.82499999 0.32499999 0.42500001
0.82499999 0.32499999 0.47499999
0.875 0.32499999 0.47499999
0.82499999 0.375 0.47499999
0.875 0.375 0.47499999
0.875 0.025 0.67500001
0.875 0.075000003 0.67500001
0.97500002 0.025 0.625
0.97500002 0.075000003 0.625
0.92500001 0.025 0.67500001
0.97500002 0.025 0.67500001
0.92500001 0.075000003 0.67500001
0.97500002 0.075000003 0.67500001
0.875 0.125 0.67500001
0.875 0.175 0.67500001
0.92500001 0.125 0.625
0.92500001 0.125 0.67500001
0.97500002 0.125 0.67500001
0.92500001 0.175 0.67500001
0.97500002 0.175 0.67500001
1.025 0.125 0.67500001
1.125 0.175 0.67500001
1.025 0.075000003 0.77499998
1.075 0.075000003 0.77499998
1.025 0.125 0.77499998
1.025 0.175 0.77499998
1.075 0.175 0.77499998
0.875 0.22499999 0.67500001
0.875 0.27500001 0.67500001
0.92500001 0.22499999 0.67500001
0.97500002 0.22499999 0.67500001
0.92500001 0.27500001 0.67500001
0.97500002 0.32499999 0.67500001
0.97500002 0.375 0.67500001
0.97500002 0.375 0.72500002
1.075 0.27500001 0.67500001
1.125 0.22499999 0.67500001
1.025 0.375 0.67500001
1.025 0.27500001 0.72500002
1.075 0.27500001 0.72500002
1.075 0.32499999 0.72500002
1.075 0.375 0.72500002
1.125 0.32499999 0.72500002
1.175 0.32499999 0.72500002
1.175 0.375 0.72500002
1.275 0.175 0.72500002
1.325 0.22499999 0.67500001
1.325 0.27500001 0.67500001
1.225 0.32499999 0.67500001
1.325 0.32499999 0.67500001
1.275 0.22499999 0.72500002
1.275 0.27500001 0.72500002
1.375 0.22499999 0.72500002
1.375 0.27500001 0.72500002
1.225 0.32499999 0.72500002
1.275 0.32499999 0.72500002
1.225 0.375 0.72500002
1.275 0.375 0.72500002
1.375 0.32499999 0.72500002
1.325 0.375 0.72500002
1.375 0.375 0.72500002
1.425 0.22499999 0.72500002
1.425 0.27500001 0.72500002
1.475 0.27500001 0.72500002
1.525 0.22499999 0.72500002
1.575 0.22499999 0.72500002
1.525 0.27500001 0.72500002
1.575 0.27500001 0.72500002
1.425 0.32499999 0.72500002
1.475 0.32499999 0.72500002
1.475 0.375 0.72500002
1.525 0.32499999 0.72500002
1.575 0.32499999 0.72500002
1.525 0.375 0.72500002
1.575 0.375 0.72500002
0.82499999 0.42500001 0.47499999
0.875 0.42500001 0.47499999
0.97500002 0.47499999 0.42500001
0.97500002 0.42500001 0.47499999
0.82499999 0.57499999 0.42500001
0.875 0.57499999 0.42500001
0.92500001 0.52499998 0.42500001
0.97500002 0.52499998 0.42500001
1.025 0.52499998 0.42500001
1.075 0.52499998 0.42500001
1.125 0.57499999 0.57499999
1.175 0.57499999 0.57499999
0.82499999 0.625 0.42500001
0.875 0.625 0.42500001
0.875 0.77499998 0.42500001
1.075 0.625 0.42500001
1.075 0.67500001 0.42500001
1.075 0.67500001 0.47499999
1.125 0.625 0.42500001
1.125 0.67500001 0.42500001
1.125 0.625 0.47499999
1.125 0.67500001 0.47499999
1.075 0.72500002 0.42500001
1.075 0.67500001 0.57499999
1.125 0.625 0.57499999
1.125 0.67500001 0.57499999
1.025 0.77499998 0.57499999
1.025 0.42500001 0.625
1.025 0.42500001 0.67500001
1.125 0.52499998 0.625
1.125 0.57499999 0.625
1.125 0.52499998 0.67500001
1.125 0.57499999 0.67500001
1.125 0.57499999 0.72500002
1.125 0.57499999 0.77499998
1.175 0.57499999 0.77499998
1.075 0.67500001 0.625
1.075 0.67500001 0.67500001
1.125 0.625 0.625
1.125 0.67500001 0.625
1.125 0.625 0.67500001
1.125 0.67500001 0.67500001
1.075 0.72500002 0.625
1.025 0.77499998 0.625
1.075 0.72500002 0.67500001
1.025 0.77499998 0.67500001
1.075 0.77499998 0.67500001
1.125 0.72500002 0.625
1.075 0.67500001 0.72500002
1.125 0.625 0.72500002
1.125 0.67500001 0.72500002
1.125 0.625 0.77499998
1.125 0.67500001 0.77499998
1.075 0.72500002 0.72500002
1.025 0.77499998 0.72500002
1.075 0.77499998 0.72500002
1.075 0.72500002 0.77499998
1.025 0.77499998 0.77499998
1.075 0.77499998 0.77499998
1.125 0.72500002 0.72500002
1.125 0.72500002 0.77499998
1.225 0.72500002 0.42500001
1.275 0.72500002 0.42500001
1.225 0.42500001 0.72500002
1.275 0.42500001 0.72500002
1.325 0.42500001 0.72500002
1.375 0.42500001 0.72500002
1.375 0.47499999 0.72500002
1.325 0.47499999 0.77499998
1.375 0.52499998 0.72500002
1.375 0.52499998 0.77499998
1.425 0.42500001 0.72500002
1.475 0.42500001 0.72500002
1.425 0.47499999 0.72500002
1.475 0.47499999 0.72500002
1.425 0.47499999 0.77499998
1.525 0.42500001 0.72500002
1.575 0.42500001 0.72500002
1.525 0.47499999 0.72500002
1.575 0.47499999 0.72500002
1.425 0.52499998 0.72500002
1.475 0.52499998 0.72500002
1.425 0.52499998 0.77499998
1.525 0.52499998 0.72500002
1.575 0.52499998 0.72500002
1.525 0.57499999 0.72500002
1.575 0.57499999 0.72500002
1.325 0.625 0.625
1.325 0.625 0.67500001
1.325 0.625 0.77499998
1.425 0.625 0.72500002
0.97500002 0.82499999 0.025
1.025 0.82499999 0.125
1.475 0.97500002 0.125
1.525 0.97500002 0.125
1.475 1.025 0.125
1.525 1.025 0.125
1.225 0.92500001 0.27500001
1.225 0.97500002 0.27500001
1.225 0.97500002 0.32499999
1.275 0.97500002 0.32499999
0.97500002 0.875 0.47499999
0.97500002 0.82499999 0.57499999
0.92500001 0.875 0.57499999
0.97500002 0.875 0.57499999
1.025 0.82499999 0.42500001
1.025 0.82499999 0.57499999
0.875 0.875 0.67500001
0.92500001 0.82499999 0.625
0.97500002 0.82499999 0.625
0.92500001 0.875 0.625
0.97500002 0.875 0.625
0.92500001 0.82499999 0.67500001
0.97500002 0.82499999 0.67500001
0.92500001 0.875 0.67500001
0.97500002 0.82499999 0.72500002
0.92500001 0.875 0.72500002
0.97500002 0.875 0.72500002
0.97500002 0.82499999 0.77499998
0.92500001 0.875 0.77499998
0.97500002 0.875 0.77499998
1.025 0.82499999 0.625
1.025 0.82499999 0.67500001
1.125 0.82499999 0.67500001
1.025 0.82499999 0.72500002
1.025 0.82499999 0.77499998
1.125 0.82499999 0.72500002
1.175 0.175 0.875
1.175 0.57499999 0.82499999
1.125 0.625 0.82499999
1.175 0.625 0.82499999
1.125 0.67500001 0.82499999
1.175 0.625 0.875
1.125 0.67500001 0.875
1.175 0.67500001 0.875
1.075 0.72500002 0.82499999
1.075 0.77499998 0.82499999
1.075 0.77499998 0.875
1.125 0.72500002 0.82499999
1.125 0.77499998 0.82499999
1.125 0.72500002 0.875
1.125 0.77499998 0.875
1.175 0.625 0.92500001
1.125 0.67500001 0.92500001
1.175 0.67500001 0.92500001
1.175 0.67500001 0.97500002
1.125 0.72500002 0.92500001
1.175 0.72500002 0.92500001
1.125 0.77499998 0.92500001
1.125 0.72500002 0.97500002
1.175 0.72500002 0.97500002
1.325 0.67500001 0.875
1.225 0.67500001 0.92500001
1.275 0.67500001 0.92500001
1.275 0.67500001 0.97500002
1.325 0.67500001 0.92500001
1.225 0.72500002 0.97500002
1.275 0.72500002 0.97500002
1.275 0.67500001 1.025
0.97500002 0.875 0.82499999
0.97500002 0.875 0.875
0.97500002 0.92500001 0.875
1.025 0.82499999 0.82499999
1.075 0.82499999 0.82499999
1.025 0.875 0.82499999
1.025 0.82499999 0.875
1.075 0.82499999 0.875
1.025 0.875 0.875
1.025 0.92500001 0.875
1.025 0.82499999 0.92500001
1.075 0.82499999 0.92500001
1.025 0.875 0.92500001
1.075 0.82499999 0.97500002
1.075 0.875 0.97500002
1.025 0.92500001 0.92500001
1.075 1.075 0.82499999
1.075 1.025 0.875
1.075 1.075 0.875
1.075 1.125 0.82499999
1.075 1.175 0.82499999
1.075 1.125 0.875
1.075 1.175 0.875
1.125 1.125 0.82499999
1.075 1.025 0.92500001
1.025 1.075 0.92500001
1.075 1.075 0.92500001
1.025 1.075 0.97500002
1.025 1.125 0.92500001
1.075 1.125 0.92500001
1.025 1.175 0.92500001
1.075 1.175 0.92500001
1.025 1.125 0.97500002
1.075 1.125 0.97500002
1.025 1.125 1.025
1.625 0.27500001 0.025
1.625 0.32499999 0.025
1.875 0.27500001 0.025
1.875 0.32499999 0.025
1.925 0.32499999 0.025
2.0250001 0.32499999 0.025
2.075 0.32499999 0.025
2.0250001 0.375 0.025
2.075 0.375 0.025
2.175 0.32499999 0.025
2.125 0.375 0.025
2.175 0.375 0.025
2.125 0.32499999 0.125
2.175 0.32499999 0.125
2.125 0.375 0.125
2.125 0.32499999 0.175
2.125 0.375 0.175
2.0250001 0.32499999 0.27500001
2.0250001 0.375 0.27500001
2.125 0.32499999 0.22499999
2.125 0.375 0.22499999
2.0250001 0.32499999 0.32499999
2.0250001 0.375 0.32499999
2.0250001 0.32499999 0.375
2.0250001 0.375 0.375
1.875 0.42500001 0.025
1.925 0.42500001 0.025
1.975 0.42500001 0.025
2.0250001 0.42500001 0.025
2.125 0.42500001 0.025
2.175 0.42500001 0.025
2.175 0.47499999 0.025
2.125 0.42500001 0.175
2.125 0.47499999 0.175
2.125 0.52499998 0.175
2.125 0.57499999 0.175
2.125 0.625 0.175
2.125 0.67500001 0.175
2.125 0.72500002 0.175
2.125 0.77499998 0.175
2.0250001 0.42500001 0.27500001
2.0250001 0.47499999 0.27500001
2.125 0.42500001 0.22499999
2.125 0.47499999 0.22499999
2.0250001 0.52499998 0.27500001
2.0250001 0.57499999 0.27500001
2.125 0.52499998 0.22499999
2.125 0.57499999 0.22499999
2.0250001 0.42500001 0.32499999
2.0250001 0.47499999 0.32499999
2.0250001 0.42500001 0.375
2.0250001 0.47499999 0.375
2.0250001 0.52499998 0.32499999
2.0250001 0.57499999 0.32499999
2.0250001 0.52499998 0.375
2.0250001 0.57499999 0.375
2.0250001 0.625 0.27500001
2.0250001 0.67500001 0.27500001
2.125 0.625 0.22499999
2.0250001 0.72500002 0.27500001
2.0250001 0.77499998 0.27500001
2.125 0.72500002 0.22499999
2.125 0.77499998 0.22499999
2.0250001 0.625 0.32499999
2.0250001 0.67500001 0.32499999
2.0250001 0.625 0.375
2.0250001 0.67500001 0.375
2.0250001 0.72500002 0.32499999
2.0250001 0.77499998 0.32499999
2.0250001 0.72500002 0.375
2.0250001 0.77499998 0.375
1.625 0.22499999 0.72500002
1.625 0.27500001 0.72500002
1.675 0.27500001 0.72500002
1.725 0.27500001 0.72500002
1.775 0.27500001 0.72500002
1.625 0.32499999 0.72500002
1.675 0.32499999 0.72500002
1.625 0.375 0.72500002
1.675 0.375 0.72500002
1.725 0.32499999 0.72500002
1.775 0.32499999 0.72500002
1.725 0.375 0.72500002
1.775 0.375 0.72500002
1.825 0.27500001 0.72500002
1.925 0.27500001 0.72500002
1.825 0.32499999 0.72500002
1.825 0.375 0.72500002
1.975 0.32499999 0.72500002
1.925 0.375 0.72500002
2.0250001 0.32499999 0.42500001
2.0250001 0.375 0.42500001
2.0250001 0.32499999 0.47499999
2.0250001 0.375 0.47499999
2.0250001 0.32499999 0.52499998
2.0250001 0.375 0.52499998
2.0250001 0.32499999 0.57499999
2.0250001 0.375 0.57499999
2.0250001 0.32499999 0.625
2.0250001 0.375 0.625
2.075 0.375 0.67500001
2.125 0.32499999 0.67500001
2.125 0.375 0.67500001
2.0250001 0.32499999 0.72500002
2.075 0.32499999 0.72500002
2.075 0.375 0.72500002
2.125 0.32499999 0.72500002
2.125 0.375 0.72500002
1.625 0.42500001 0.72500002
1.675 0.42500001 0.72500002
1.625 0.47499999 0.72500002
1.675 0.47499999 0.72500002
1.725 0.42500001 0.72500002
1.775 0.42500001 0.72500002
1.725 0.47499999 0.72500002
1.625 0.52499998 0.72500002
1.675 0.52499998 0.72500002
1.625 0.57499999 0.72500002
1.675 0.57499999 0.72500002
1.725 0.52499998 0.72500002
1.775 0.52499998 0.72500002
1.725 0.57499999 0.72500002
1.875 0.42500001 0.72500002
1.825 0.47499999 0.72500002
1.875 0.47499999 0.72500002
1.925 0.42500001 0.72500002
1.925 0.47499999 0.72500002
1.825 0.52499998 0.72500002
1.875 0.52499998 0.72500002
1.825 0.57499999 0.72500002
1.875 0.57499999 0.72500002
1.925 0.52499998 0.72500002
1.975 0.52499998 0.72500002
1.925 0.57499999 0.72500002
1.625 0.625 0.72500002
1.675 0.625 0.72500002
1.775 0.625 0.72500002
1.825 0.625 0.72500002
1.925 0.625 0.72500002
1.925 0.67500001 0.72500002
2.0250001 0.42500001 0.42500001
2.0250001 0.47499999 0.42500001
2.0250001 0.42500001 0.47499999
2.0250001 0.47499999 0.47499999
2.0250001 0.52499998 0.42500001
2.0250001 0.57499999 0.42500001
2.0250001 0.52499998 0.47499999
2.0250001 0.57499999 0.47499999
2.0250001 0.42500001 0.52499998
2.0250001 0.47499999 0.52499998
2.0250001 0.42500001 0.57499999
2.0250001 0.47499999 0.57499999
2.0250001 0.52499998 0.52499998
2.0250001 0.57499999 0.52499998
2.0250001 0.52499998 0.57499999
2.0250001 0.57499999 0.57499999
2.0250001 0.625 0.42500001
2.0250001 0.67500001 0.42500001
2.0250001 0.625 0.47499999
2.0250001 0.67500001 0.47499999
2.0250001 0.72500002 0.42500001
2.0250001 0.77499998 0.42500001
2.0250001 0.72500002 0.47499999
2.0250001 0.625 0.52499998
2.0250001 0.67500001 0.52499998
2.0250001 0.625 0.57499999
2.0250001 0.67500001 0.57499999
2.0250001 0.72500002 0.52499998
2.0250001 0.72500002 0.57499999
2.0250001 0.42500001 0.625
2.0250001 0.47499999 0.625
2.125 0.42500001 0.67500001
2.125 0.47499999 0.67500001
2.0250001 0.52499998 0.625
2.0250001 0.57499999 0.625
2.125 0.52499998 0.67500001
2.125 0.57499999 0.67500001
2.075 0.42500001 0.72500002
2.075 0.47499999 0.72500002
2.125 0.42500001 0.72500002
2.125 0.47499999 0.72500002
2.075 0.52499998 0.72500002
2.075 0.57499999 0.72500002
2.125 0.52499998 0.72500002
2.125 0.57499999 0.72500002
2.0250001 0.625 0.625
2.0250001 0.67500001 0.625
2.075 0.67500001 0.67500001
2.125 0.67500001 0.67500001
2.075 0.72500002 0.67500001
2.125 0.82499999 0.175
2.125 0.875 0.175
2.125 0.97500002 0.125
2.125 0.92500001 0.175
2.125 0.97500002 0.175
2.125 1.025 0.125
2.125 1.025 0.175
2.125 1.075 0.175
2.125 1.125 0.175
2.0250001 0.82499999 0.27500001
2.075 0.82499999 0.27500001
2.0250001 0.875 0.27500001
2.075 0.875 0.27500001
2.125 0.82499999 0.22499999
2.125 0.875 0.22499999
2.0250001 0.92500001 0.27500001
2.075 0.92500001 0.27500001
2.0250001 0.97500002 0.27500001
2.075 0.97500002 0.27500001
2.125 0.92500001 0.22499999
2.125 0.97500002 0.22499999
2.175 0.97500002 0.22499999
2.0250001 0.82499999 0.32499999
2.0250001 0.875 0.32499999
2.0250001 0.82499999 0.375
2.0250001 0.875 0.375
2.0250001 0.92500001 0.32499999
2.0250001 0.97500002 0.32499999
2.0250001 0.92500001 0.375
2.0250001 0.97500002 0.375
2.0250001 1.025 0.27500001
2.075 1.025 0.27500001
2.0250001 1.075 0.27500001
2.125 1.025 0.22499999
2.175 1.025 0.22499999
2.125 1.075 0.22499999
2.125 1.075 0.27500001
2.0250001 1.125 0.27500001
2.125 1.125 0.22499999
2.125 1.175 0.22499999
2.125 1.125 0.27500001
2.125 1.175 0.27500001
2.0250001 1.025 0.32499999
2.0250001 1.075 0.32499999
2.0250001 1.125 0.32499999
2.2249999 1.025 0.22499999
2.0250001 0.82499999 0.42500001
2.0250001 0.875 0.42500001
2.075 0.025 1.375
2.125 0.025 1.375
2.125 0.075000003 1.375
2.075 0.175 1.325
2.075 0.175 1.375
2.125 0.175 1.325
2.125 0.125 1.375
2.125 0.175 1.375
2.075 0.22499999 1.325
2.125 0.22499999 1.375
2.125 0.27500001 1.375
2.125 0.32499999 1.375
2.125 0.375 1.375
2.075 0.025 1.425
2.075 0.075000003 1.425
2.075 0.025 1.475
2.075 0.075000003 1.475
2.125 0.025 1.475
2.125 0.075000003 1.475
2.075 0.125 1.425
2.075 0.175 1.425
2.075 0.125 1.475
2.075 0.175 1.475
2.125 0.125 1.425
2.125 0.125 1.475
2.125 0.175 1.475
2.075 0.025 1.525
2.075 0.075000003 1.525
2.075 0.025 1.575
2.125 0.075000003 1.525
2.125 0.025 1.575
2.125 0.075000003 1.575
2.075 0.125 1.525
2.075 0.175 1.525
2.125 0.125 1.525
2.125 0.175 1.525
2.125 0.125 1.575
2.125 0.175 1.575
2.075 0.22499999 1.425
2.075 0.27500001 1.425
2.125 0.27500001 1.425
2.125 0.22499999 1.475
2.125 0.27500001 1.475
2.075 0.32499999 1.425
2.075 0.375 1.425
2.125 0.32499999 1.425
2.125 0.375 1.425
2.125 0.32499999 1.475
2.125 0.375 1.475
2.075 0.22499999 1.525
2.075 0.27500001 1.525
2.075 0.22499999 1.575
2.125 0.22499999 1.525
2.125 0.27500001 1.525
2.125 0.22499999 1.575
2.125 0.27500001 1.575
2.075 0.32499999 1.525
2.075 0.375 1.525
2.125 0.32499999 1.525
2.125 0.375 1.525
2.125 0.32499999 1.575
2.125 0.375 1.575
2.125 0.42500001 1.375
2.125 0.47499999 1.375
2.125 0.52499998 1.325
2.125 0.57499999 1.325
2.125 0.52499998 1.375
2.175 0.52499998 1.375
2.125 0.57499999 1.375
2.125 0.72500002 1.275
2.125 0.77499998 1.275
2.125 0.625 1.325
2.125 0.67500001 1.325
2.125 0.625 1.375
2.125 0.67500001 1.375
2.125 0.72500002 1.325
2.125 0.77499998 1.325
2.125 0.72500002 1.375
2.125 0.77499998 1.375
2.125 0.42500001 1.425
2.125 0.47499999 1.425
2.125 0.42500001 1.475
2.125 0.47499999 1.475
2.125 0.52499998 1.425
2.125 0.57499999 1.425
2.125 0.52499998 1.475
2.125 0.57499999 1.475
2.125 0.42500001 1.525
2.125 0.47499999 1.525
2.125 0.42500001 1.575
2.125 0.47499999 1.575
2.125 0.52499998 1.525
2.125 0.57499999 1.525
2.125 0.52499998 1.575
2.125 0.57499999 1.575
2.125 0.625 1.425
2.125 0.67500001 1.425
2.125 0.625 1.475
2.125 0.67500001 1.475
2.125 0.72500002 1.425
2.125 0.77499998 1.425
2.125 0.72500002 1.475
2.125 0.77499998 1.475
2.125 0.625 1.525
2.125 0.67500001 1.525
2.125 0.625 1.575
2.125 0.67500001 1.575
2.125 0.72500002 1.525
2.125 0.77499998 1.525
2.125 0.72500002 1.575
2.125 0.77499998 1.575
2.125 0.92500001 1.175
2.125 0.82499999 1.275
2.125 0.875 1.275
2.125 0.92500001 1.275
2.125 0.97500002 1.275
2.125 0.82499999 1.325
2.125 0.875 1.325
2.125 0.82499999 1.375
2.125 0.875 1.375
2.125 0.92500001 1.325
2.125 0.97500002 1.325
2.125 0.92500001 1.375
2.125 0.97500002 1.375
2.125 0.82499999 1.425
2.125 0.875 1.425
2.125 0.82499999 1.475
2.125 0.875 1.475
2.125 0.92500001 1.425
2.125 0.97500002 1.425
2.125 0.92500001 1.475
2.125 0.97500002 1.475
2.125 0.82499999 1.525
2.125 0.875 1.525
2.125 0.82499999 1.575
2.125 0.875 1.575
2.125 0.92500001 1.525
2.125 0.97500002 1.525
2.125 0.92500001 1.575
2.125 0.97500002 1.575
2.175 1.525 1.475
2.125 1.575 1.475
1.725 1.775 1.025
1.725 1.825 1.025
2.125 2.2249999 1.075
2.175 2.2249999 1.075
2.175 2.2249999 1.125
2.175 2.2249999 1.275
2.175 2.2750001 1.275
2.175 2.325 1.275
2.175 2.2249999 1.325
2.175 2.2750001 1.325
2.075 0.025 1.675
2.075 0.075000003 1.675
2.125 0.025 1.625
2.125 0.075000003 1.625
2.125 0.025 1.675
2.125 0.075000003 1.675
2.075 0.125 1.675
2.075 0.175 1.675
2.125 0.125 1.625
2.125 0.175 1.625
2.125 0.125 1.675
2.125 0.175 1.675
2.125 0.025 1.725
2.125 0.075000003 1.725
2.125 0.025 1.775
2.125 0.075000003 1.775
2.125 0.175 1.725
2.125 0.125 1.775
2.125 0.175 1.775
2.075 0.22499999 1.675
2.125 0.22499999 1.625
2.125 0.27500001 1.625
2.125 0.22499999 1.675
2.125 0.27500001 1.675
2.075 0.375 1.675
2.125 0.32499999 1.625
2.125 0.375 1.625
2.125 0.32499999 1.675
2.125 0.375 1.675
2.125 0.22499999 1.725
2.125 0.27500001 1.725
2.125 0.22499999 1.775
2.125 0.27500001 1.775
2.125 0.32499999 1.725
2.125 0.375 1.725
2.125 0.32499999 1.775
2.125 0.375 1.775
2.075 0.025 1.825
2.075 0.075000003 1.825
2.075 0.025 1.875
2.125 0.025 1.825
2.125 0.075000003 1.825
2.125 0.025 1.875
2.125 0.075000003 1.875
2.075 0.125 1.825
2.075 0.175 1.825
2.125 0.125 1.825
2.125 0.175 1.825
2.125 0.125 1.875
2.125 0.175 1.875
2.075 0.025 1.975
2.075 0.075000003 1.975
2.125 0.025 1.925
2.125 0.075000003 1.925
2.125 0.075000003 1.975
2.075 0.125 1.975
2.075 0.175 1.975
2.125 0.125 1.925
2.125 0.175 1.925
2.125 0.125 1.975
2.125 0.175 1.975
2.125 0.22499999 1.825
2.125 0.27500001 1.825
