# .PCD v0.7 - Point Cloud Data file format
VERSION 0.7
FIELDS x y z
SIZE 4 4 4
TYPE F F F
COUNT 1 1 1
WIDTH 1937
HEIGHT 1
VIEWPOINT 0 0 0 1 0 0 0
POINTS 1937
DATA ascii
6.4250002 -1.875 1.375
6.4250002 -1.825 1.375
6.4250002 -1.775 1.225
6.4250002 -1.725 1.225
6.4250002 -1.775 1.275
6.4250002 -1.725 1.275
6.4250002 -1.675 1.225
6.4250002 -1.625 1.225
6.4250002 -1.675 1.275
6.4250002 -1.625 1.275
6.4250002 -1.775 1.325
6.4250002 -1.725 1.325
6.4250002 -1.775 1.375
6.4250002 -1.725 1.375
6.4250002 -1.675 1.325
6.4250002 -1.625 1.325
6.4250002 -1.675 1.375
6.4250002 -1.625 1.375
6.4250002 -1.975 1.425
6.4250002 -1.925 1.425
6.4250002 -1.975 1.475
6.4250002 -1.925 1.475
6.4250002 -1.875 1.425
6.4250002 -1.825 1.425
6.4250002 -1.875 1.475
6.4250002 -1.825 1.475
6.4250002 -1.975 1.525
6.4250002 -1.925 1.525
6.4250002 -1.975 1.575
6.4250002 -1.925 1.575
6.4250002 -1.875 1.525
6.4250002 -1.825 1.525
6.4250002 -1.875 1.575
6.4250002 -1.825 1.575
6.4250002 -1.775 1.425
6.4250002 -1.725 1.425
6.4250002 -1.775 1.475
6.4250002 -1.725 1.475
6.4250002 -1.675 1.425
6.4250002 -1.625 1.425
6.4250002 -1.675 1.475
6.4250002 -1.625 1.475
6.4250002 -1.775 1.525
6.4250002 -1.725 1.525
6.4250002 -1.775 1.575
6.4250002 -1.725 1.575
6.4250002 -1.675 1.525
6.4250002 -1.625 1.525
6.4250002 -1.675 1.575
6.4250002 -1.625 1.575
6.4250002 -1.475 0.075000003
6.5749998 -1.175 0.075000003
6.5250001 -1.125 0.075000003
6.5749998 -1.125 0.075000003
6.4250002 -1.175 0.125
6.4749999 -1.175 0.125
6.4250002 -1.125 0.125
6.4250002 -1.175 0.175
6.4749999 -1.175 0.175
6.4250002 -1.125 0.175
6.4749999 -1.125 0.175
6.5250001 -1.175 0.125
6.5749998 -1.175 0.125
6.5250001 -1.125 0.125
6.5749998 -1.125 0.125
6.5250001 -1.175 0.175
6.5250001 -1.125 0.175
6.5749998 -1.125 0.175
6.625 -1.125 0.075000003
6.6750002 -1.125 0.075000003
6.7249999 -1.125 0.075000003
6.7750001 -1.125 0.075000003
6.625 -1.125 0.125
6.6750002 -1.125 0.125
6.625 -1.125 0.175
6.6750002 -1.125 0.175
6.7249999 -1.125 0.125
6.7750001 -1.125 0.125
6.7249999 -1.125 0.175
6.7750001 -1.125 0.175
6.4250002 -1.175 0.22499999
6.4250002 -1.125 0.22499999
6.4749999 -1.125 0.22499999
6.4749999 -1.175 0.27500001
6.4250002 -1.125 0.27500001
6.4749999 -1.125 0.27500001
6.5250001 -1.125 0.22499999
6.5749998 -1.125 0.22499999
6.5250001 -1.175 0.27500001
6.5250001 -1.125 0.27500001
6.5749998 -1.125 0.27500001
6.4250002 -1.175 0.32499999
6.4749999 -1.175 0.32499999
6.4250002 -1.125 0.32499999
6.4749999 -1.125 0.32499999
6.4250002 -1.175 0.375
6.4749999 -1.175 0.375
6.4250002 -1.125 0.375
6.4749999 -1.125 0.375
6.5250001 -1.175 0.32499999
6.5250001 -1.125 0.32499999
6.5749998 -1.125 0.32499999
6.5250001 -1.175 0.375
6.5749998 -1.175 0.375
6.5250001 -1.125 0.375
6.5749998 -1.125 0.375
6.625 -1.125 0.22499999
6.6750002 -1.125 0.22499999
6.625 -1.125 0.27500001
6.6750002 -1.125 0.27500001
6.7249999 -1.125 0.22499999
6.7750001 -1.125 0.22499999
6.7249999 -1.125 0.27500001
6.7750001 -1.125 0.27500001
6.625 -1.125 0.32499999
6.6750002 -1.125 0.32499999
6.625 -1.125 0.375
6.6750002 -1.125 0.375
6.7249999 -1.125 0.32499999
6.7750001 -1.125 0.32499999
6.7249999 -1.125 0.375
6.7750001 -1.125 0.375
6.8249998 -1.125 0.075000003
6.875 -1.125 0.075000003
6.9250002 -1.125 0.075000003
6.9749999 -1.125 0.075000003
6.8249998 -1.125 0.125
6.875 -1.125 0.125
6.8249998 -1.125 0.175
6.875 -1.125 0.175
6.9250002 -1.125 0.125
6.9749999 -1.125 0.125
6.9250002 -1.125 0.175
6.9749999 -1.125 0.175
7.0250001 -1.125 0.075000003
7.0749998 -1.125 0.075000003
7.125 -1.125 0.075000003
7.1750002 -1.125 0.075000003
7.0250001 -1.125 0.125
7.0749998 -1.125 0.125
7.0250001 -1.125 0.175
7.0749998 -1.125 0.175
7.125 -1.125 0.125
7.1750002 -1.125 0.125
7.125 -1.125 0.175
7.1750002 -1.125 0.175
6.8249998 -1.125 0.22499999
6.875 -1.125 0.22499999
6.8249998 -1.125 0.27500001
6.875 -1.125 0.27500001
6.9250002 -1.125 0.22499999
6.9749999 -1.125 0.22499999
6.9250002 -1.125 0.27500001
6.9749999 -1.125 0.27500001
6.8249998 -1.125 0.32499999
6.875 -1.125 0.32499999
6.8249998 -1.125 0.375
6.875 -1.125 0.375
6.9250002 -1.125 0.32499999
6.9749999 -1.125 0.32499999
6.9250002 -1.125 0.375
6.9749999 -1.125 0.375
7.0250001 -1.125 0.22499999
7.0749998 -1.125 0.22499999
7.0250001 -1.125 0.27500001
7.0749998 -1.125 0.27500001
7.125 -1.125 0.22499999
7.1750002 -1.125 0.22499999
7.125 -1.125 0.27500001
7.1750002 -1.125 0.27500001
7.0250001 -1.125 0.32499999
7.0749998 -1.125 0.32499999
7.0250001 -1.125 0.375
7.0749998 -1.125 0.375
7.125 -1.125 0.32499999
7.1750002 -1.125 0.32499999
7.125 -1.125 0.375
7.1750002 -1.125 0.375
6.4250002 -1.225 0.57499999
6.4250002 -1.225 0.625
6.4250002 -1.225 0.67500001
6.4250002 -1.225 0.72500002
6.4250002 -1.225 0.77499998
6.4250002 -1.175 0.42500001
6.4250002 -1.125 0.42500001
6.5250001 -1.175 0.42500001
6.5250001 -1.125 0.42500001
6.5749998 -1.125 0.42500001
6.5749998 -1.175 0.47499999
6.5749998 -1.125 0.47499999
6.5749998 -1.175 0.57499999
6.5749998 -1.125 0.57499999
6.625 -1.175 0.42500001
6.625 -1.125 0.42500001
6.6750002 -1.125 0.42500001
6.625 -1.125 0.47499999
6.6750002 -1.125 0.47499999
6.7249999 -1.125 0.42500001
6.7750001 -1.125 0.42500001
6.7249999 -1.125 0.47499999
6.7750001 -1.125 0.47499999
6.625 -1.175 0.52499998
6.625 -1.125 0.52499998
6.6750002 -1.125 0.52499998
6.625 -1.175 0.57499999
6.625 -1.125 0.57499999
6.6750002 -1.125 0.57499999
6.7249999 -1.125 0.52499998
6.7750001 -1.125 0.52499998
6.7249999 -1.125 0.57499999
6.7750001 -1.125 0.57499999
6.4250002 -1.175 0.625
6.5749998 -1.175 0.67500001
6.4250002 -1.175 0.72500002
6.4250002 -1.175 0.77499998
6.625 -1.175 0.625
6.6750002 -1.175 0.625
6.625 -1.125 0.625
6.6750002 -1.125 0.625
6.625 -1.175 0.67500001
6.625 -1.125 0.67500001
6.6750002 -1.125 0.67500001
6.7249999 -1.125 0.625
6.7750001 -1.125 0.625
6.7249999 -1.125 0.67500001
6.7750001 -1.125 0.67500001
6.625 -1.175 0.72500002
6.6750002 -1.175 0.72500002
6.6750002 -1.125 0.72500002
6.625 -1.175 0.77499998
6.625 -1.125 0.77499998
6.6750002 -1.125 0.77499998
6.7750001 -1.125 0.72500002
6.7249999 -1.125 0.77499998
6.7750001 -1.125 0.77499998
6.8249998 -1.125 0.42500001
6.875 -1.125 0.42500001
6.8249998 -1.125 0.47499999
6.875 -1.125 0.47499999
6.9250002 -1.125 0.42500001
6.9749999 -1.125 0.42500001
6.9250002 -1.125 0.47499999
6.9749999 -1.125 0.47499999
6.8249998 -1.125 0.52499998
6.875 -1.125 0.52499998
6.8249998 -1.125 0.57499999
6.875 -1.125 0.57499999
6.9250002 -1.125 0.52499998
6.9749999 -1.125 0.52499998
6.9250002 -1.125 0.57499999
6.9749999 -1.125 0.57499999
7.0250001 -1.125 0.42500001
7.0749998 -1.125 0.42500001
7.0250001 -1.125 0.47499999
7.0749998 -1.125 0.47499999
7.125 -1.125 0.42500001
7.1750002 -1.125 0.42500001
7.125 -1.125 0.47499999
7.1750002 -1.125 0.47499999
7.0250001 -1.125 0.52499998
7.0749998 -1.125 0.52499998
7.0250001 -1.125 0.57499999
7.0749998 -1.125 0.57499999
7.125 -1.125 0.52499998
7.1750002 -1.125 0.52499998
7.125 -1.125 0.57499999
7.1750002 -1.125 0.57499999
6.8249998 -1.125 0.625
6.875 -1.125 0.625
6.8249998 -1.125 0.67500001
6.875 -1.125 0.67500001
6.9250002 -1.125 0.625
6.9749999 -1.125 0.625
6.9250002 -1.125 0.67500001
6.9749999 -1.125 0.67500001
6.8249998 -1.125 0.72500002
6.875 -1.125 0.72500002
6.8249998 -1.125 0.77499998
6.875 -1.125 0.77499998
6.9250002 -1.125 0.72500002
6.9749999 -1.125 0.72500002
6.9250002 -1.125 0.77499998
6.9749999 -1.125 0.77499998
7.0749998 -1.125 0.625
7.0250001 -1.125 0.67500001
7.0749998 -1.125 0.67500001
7.125 -1.125 0.625
7.1750002 -1.125 0.625
7.125 -1.125 0.67500001
7.1750002 -1.125 0.67500001
7.0250001 -1.125 0.72500002
7.0250001 -1.125 0.77499998
7.0749998 -1.125 0.77499998
7.125 -1.125 0.72500002
7.1750002 -1.125 0.72500002
7.125 -1.125 0.77499998
7.1750002 -1.125 0.77499998
7.2249999 -1.125 0.075000003
7.2750001 -1.125 0.075000003
7.3249998 -1.125 0.075000003
7.375 -1.125 0.075000003
7.2249999 -1.125 0.125
7.2249999 -1.125 0.175
7.2750001 -1.125 0.175
7.3249998 -1.125 0.125
7.375 -1.125 0.125
7.3249998 -1.125 0.175
7.375 -1.125 0.175
7.4250002 -1.125 0.075000003
7.5250001 -1.125 0.075000003
7.5749998 -1.125 0.075000003
7.4250002 -1.125 0.125
7.4749999 -1.125 0.125
7.4250002 -1.125 0.175
7.4749999 -1.125 0.175
7.5250001 -1.125 0.125
7.5749998 -1.125 0.125
7.5250001 -1.125 0.175
7.5749998 -1.125 0.175
7.2249999 -1.125 0.22499999
7.2750001 -1.125 0.27500001
7.3249998 -1.125 0.22499999
7.375 -1.125 0.22499999
7.3249998 -1.125 0.27500001
7.375 -1.125 0.27500001
7.2249999 -1.125 0.32499999
7.2750001 -1.125 0.32499999
7.2249999 -1.125 0.375
7.2750001 -1.125 0.375
7.3249998 -1.125 0.32499999
7.375 -1.125 0.32499999
7.3249998 -1.125 0.375
7.375 -1.125 0.375
7.4250002 -1.125 0.22499999
7.4749999 -1.125 0.22499999
7.4250002 -1.125 0.27500001
7.4749999 -1.125 0.27500001
7.5250001 -1.125 0.22499999
7.5749998 -1.125 0.22499999
7.5250001 -1.125 0.27500001
7.4250002 -1.125 0.32499999
7.4749999 -1.125 0.32499999
7.4250002 -1.125 0.375
7.4749999 -1.125 0.375
7.5250001 -1.125 0.32499999
7.5749998 -1.125 0.32499999
7.5250001 -1.125 0.375
7.5749998 -1.125 0.375
7.625 -1.125 0.075000003
7.6750002 -1.125 0.075000003
7.7750001 -1.125 0.075000003
7.625 -1.125 0.125
7.6750002 -1.125 0.125
7.625 -1.125 0.175
7.6750002 -1.125 0.175
7.7249999 -1.125 0.125
7.7750001 -1.125 0.125
7.7249999 -1.125 0.175
7.7750001 -1.125 0.175
7.8249998 -1.125 0.075000003
7.875 -1.125 0.075000003
7.9250002 -1.125 0.075000003
7.8249998 -1.125 0.125
7.875 -1.125 0.125
7.8249998 -1.125 0.175
7.875 -1.125 0.175
7.9250002 -1.125 0.175
7.9749999 -1.125 0.175
7.625 -1.125 0.22499999
7.6750002 -1.125 0.22499999
7.625 -1.125 0.27500001
7.6750002 -1.125 0.27500001
7.7249999 -1.125 0.22499999
7.7750001 -1.125 0.22499999
7.7750001 -1.125 0.27500001
7.625 -1.125 0.32499999
7.625 -1.125 0.375
7.6750002 -1.125 0.375
7.7249999 -1.125 0.32499999
7.7750001 -1.125 0.32499999
7.7750001 -1.125 0.375
7.8249998 -1.125 0.22499999
7.875 -1.125 0.22499999
7.8249998 -1.125 0.27500001
7.875 -1.125 0.27500001
7.9250002 -1.125 0.22499999
7.9749999 -1.125 0.27500001
7.8249998 -1.125 0.32499999
7.875 -1.125 0.32499999
7.8249998 -1.125 0.375
7.9250002 -1.125 0.32499999
7.9749999 -1.125 0.32499999
7.9250002 -1.125 0.375
7.2249999 -1.125 0.42500001
7.2750001 -1.125 0.42500001
7.2249999 -1.125 0.47499999
7.2750001 -1.125 0.47499999
7.3249998 -1.125 0.42500001
7.375 -1.125 0.42500001
7.375 -1.125 0.47499999
7.2249999 -1.125 0.52499998
7.2249999 -1.125 0.57499999
7.2750001 -1.125 0.57499999
7.3249998 -1.125 0.52499998
7.375 -1.125 0.52499998
7.3249998 -1.125 0.57499999
7.4250002 -1.125 0.42500001
7.4749999 -1.125 0.42500001
7.4250002 -1.125 0.47499999
7.4749999 -1.125 0.47499999
7.5250001 -1.125 0.42500001
7.5749998 -1.125 0.42500001
7.5250001 -1.125 0.47499999
7.5749998 -1.125 0.47499999
7.4749999 -1.125 0.52499998
7.4250002 -1.125 0.57499999
7.4749999 -1.125 0.57499999
7.5250001 -1.125 0.52499998
7.5749998 -1.125 0.52499998
7.5250001 -1.125 0.57499999
7.5749998 -1.125 0.57499999
7.2249999 -1.125 0.625
7.2750001 -1.125 0.625
7.2750001 -1.125 0.67500001
7.3249998 -1.125 0.625
7.375 -1.125 0.625
7.3249998 -1.125 0.67500001
7.375 -1.125 0.67500001
7.2249999 -1.125 0.72500002
7.2750001 -1.125 0.72500002
7.2249999 -1.125 0.77499998
7.3249998 -1.125 0.72500002
7.375 -1.125 0.72500002
7.3249998 -1.125 0.77499998
7.375 -1.125 0.77499998
7.4749999 -1.125 0.625
7.4250002 -1.125 0.67500001
7.4749999 -1.125 0.67500001
7.5250001 -1.125 0.625
7.5250001 -1.125 0.67500001
7.5749998 -1.125 0.67500001
7.4250002 -1.125 0.72500002
7.4250002 -1.125 0.77499998
7.4749999 -1.125 0.77499998
7.5250001 -1.125 0.72500002
7.5749998 -1.125 0.72500002
7.5250001 -1.125 0.77499998
7.5749998 -1.125 0.77499998
7.625 -1.125 0.42500001
7.6750002 -1.125 0.42500001
7.6750002 -1.125 0.47499999
7.7249999 -1.125 0.42500001
7.7750001 -1.125 0.42500001
7.7249999 -1.125 0.47499999
7.7750001 -1.125 0.47499999
7.625 -1.125 0.52499998
7.6750002 -1.125 0.52499998
7.625 -1.125 0.57499999
7.6750002 -1.125 0.57499999
7.7249999 -1.125 0.52499998
7.7750001 -1.125 0.52499998
7.7750001 -1.125 0.57499999
7.8249998 -1.125 0.42500001
7.875 -1.125 0.42500001
7.8249998 -1.125 0.47499999
7.9749999 -1.125 0.42500001
7.875 -1.125 0.52499998
7.8249998 -1.125 0.57499999
7.875 -1.125 0.57499999
7.9250002 -1.125 0.52499998
7.9749999 -1.125 0.52499998
7.9250002 -1.125 0.57499999
7.625 -1.125 0.625
7.6750002 -1.125 0.625
7.6750002 -1.125 0.67500001
7.7750001 -1.125 0.625
7.7249999 -1.125 0.67500001
7.7750001 -1.125 0.67500001
7.625 -1.125 0.72500002
7.6750002 -1.125 0.72500002
7.6750002 -1.125 0.77499998
7.7249999 -1.125 0.72500002
7.7750001 -1.125 0.72500002
7.7249999 -1.125 0.77499998
7.7750001 -1.125 0.77499998
7.8249998 -1.125 0.625
7.875 -1.125 0.625
7.8249998 -1.125 0.67500001
7.875 -1.125 0.67500001
7.9250002 -1.125 0.67500001
7.8249998 -1.175 0.72500002
7.8249998 -1.125 0.72500002
7.9250002 -1.125 0.72500002
7.9749999 -1.125 0.72500002
7.9250002 -1.175 0.77499998
6.4250002 -1.575 0.97500002
6.4250002 -1.225 0.875
6.4250002 -1.225 0.92500001
6.4250002 -1.225 0.97500002
6.4250002 -1.575 1.025
6.4250002 -1.525 1.025
6.4250002 -1.475 1.025
6.4250002 -1.425 1.025
6.4250002 -1.475 1.075
6.4250002 -1.425 1.075
6.4250002 -1.575 1.125
6.4250002 -1.525 1.125
6.4250002 -1.575 1.175
6.4250002 -1.525 1.175
6.4250002 -1.475 1.125
6.4250002 -1.425 1.125
6.4250002 -1.475 1.175
6.4250002 -1.425 1.175
6.4250002 -1.325 1.025
6.4250002 -1.225 1.025
6.4250002 -1.275 1.075
6.4250002 -1.225 1.075
6.4250002 -1.375 1.125
6.4250002 -1.325 1.125
6.4250002 -1.375 1.175
6.4250002 -1.325 1.175
6.4250002 -1.275 1.125
6.4250002 -1.225 1.125
6.4250002 -1.275 1.175
6.4250002 -1.225 1.175
6.4250002 -1.175 0.82499999
6.4250002 -1.175 0.875
6.4250002 -1.175 0.92500001
6.4250002 -1.175 0.97500002
6.6750002 -1.175 0.82499999
6.6750002 -1.175 0.875
6.6750002 -1.125 0.875
6.7249999 -1.175 0.82499999
6.7249999 -1.125 0.82499999
6.7750001 -1.125 0.82499999
6.7249999 -1.125 0.875
6.7750001 -1.125 0.875
6.6750002 -1.175 0.97500002
6.6750002 -1.125 0.97500002
6.7249999 -1.175 0.92500001
6.7249999 -1.125 0.92500001
6.7750001 -1.125 0.92500001
6.7249999 -1.125 0.97500002
6.7750001 -1.125 0.97500002
6.4250002 -1.175 1.025
6.4250002 -1.175 1.075
6.4250002 -1.175 1.125
6.4250002 -1.175 1.175
6.625 -1.175 1.025
6.7249999 -1.125 1.025
6.7750001 -1.125 1.025
6.7249999 -1.175 1.075
6.7750001 -1.175 1.075
6.7249999 -1.125 1.075
6.7750001 -1.125 1.075
6.6750002 -1.175 1.125
6.6750002 -1.175 1.175
6.7249999 -1.175 1.125
6.7750001 -1.175 1.125
6.7750001 -1.125 1.125
6.7249999 -1.125 1.175
6.7750001 -1.125 1.175
6.8249998 -1.125 0.82499999
6.875 -1.125 0.82499999
6.8249998 -1.125 0.875
6.875 -1.125 0.875
6.9250002 -1.125 0.82499999
6.9749999 -1.125 0.82499999
6.9250002 -1.125 0.875
6.9749999 -1.125 0.875
6.8249998 -1.125 0.92500001
6.875 -1.125 0.92500001
6.8249998 -1.125 0.97500002
6.875 -1.125 0.97500002
6.9250002 -1.125 0.92500001
6.9749999 -1.125 0.92500001
6.9250002 -1.125 0.97500002
6.9749999 -1.125 0.97500002
7.0250001 -1.125 0.82499999
7.0749998 -1.125 0.82499999
7.0250001 -1.125 0.875
7.0749998 -1.125 0.875
7.125 -1.125 0.82499999
7.1750002 -1.125 0.82499999
7.125 -1.125 0.875
7.1750002 -1.125 0.875
7.0250001 -1.125 0.92500001
7.0749998 -1.125 0.92500001
7.0250001 -1.125 0.97500002
7.125 -1.125 0.92500001
7.1750002 -1.125 0.92500001
7.125 -1.125 0.97500002
7.1750002 -1.125 0.97500002
6.875 -1.125 1.025
6.8249998 -1.125 1.075
6.875 -1.125 1.075
6.9250002 -1.125 1.025
6.9749999 -1.125 1.025
6.9250002 -1.125 1.075
6.9749999 -1.125 1.075
6.875 -1.175 1.125
6.8249998 -1.125 1.125
6.8249998 -1.175 1.175
6.875 -1.125 1.175
6.9250002 -1.125 1.125
6.9749999 -1.125 1.125
6.9250002 -1.125 1.175
6.9749999 -1.125 1.175
7.0250001 -1.125 1.025
7.0250001 -1.125 1.075
7.0749998 -1.125 1.075
7.125 -1.125 1.025
7.125 -1.125 1.075
7.1750002 -1.125 1.075
7.0250001 -1.125 1.125
7.0749998 -1.125 1.175
7.125 -1.125 1.125
7.125 -1.125 1.175
7.1750002 -1.125 1.175
6.4250002 -1.575 1.225
6.4250002 -1.525 1.225
6.4250002 -1.575 1.275
6.4250002 -1.525 1.275
6.4250002 -1.475 1.225
6.4250002 -1.425 1.225
6.4250002 -1.475 1.275
6.4250002 -1.425 1.275
6.4250002 -1.575 1.325
6.4250002 -1.525 1.325
6.4250002 -1.575 1.375
6.4250002 -1.525 1.375
6.4250002 -1.475 1.325
6.4250002 -1.425 1.325
6.4250002 -1.475 1.375
6.4250002 -1.425 1.375
6.4250002 -1.375 1.225
6.4250002 -1.325 1.225
6.4250002 -1.375 1.275
6.4250002 -1.325 1.275
6.4250002 -1.275 1.225
6.4250002 -1.225 1.225
6.4250002 -1.275 1.275
6.4250002 -1.225 1.275
6.4250002 -1.375 1.325
6.4250002 -1.325 1.325
6.4250002 -1.375 1.375
6.4250002 -1.325 1.375
6.4250002 -1.275 1.325
6.4250002 -1.225 1.325
6.4250002 -1.275 1.375
6.4250002 -1.225 1.375
6.4250002 -1.575 1.425
6.4250002 -1.525 1.425
6.4250002 -1.575 1.475
6.4250002 -1.525 1.475
6.4250002 -1.475 1.425
6.4250002 -1.425 1.425
6.4250002 -1.475 1.475
6.4250002 -1.425 1.475
6.4250002 -1.575 1.525
6.4250002 -1.525 1.525
6.4250002 -1.575 1.575
6.4250002 -1.525 1.575
6.4250002 -1.475 1.525
6.4250002 -1.425 1.525
6.4250002 -1.475 1.575
6.4250002 -1.425 1.575
6.4250002 -1.375 1.425
6.4250002 -1.325 1.425
6.4250002 -1.375 1.475
6.4250002 -1.325 1.475
6.4250002 -1.275 1.425
6.4250002 -1.225 1.425
6.4250002 -1.275 1.475
6.4250002 -1.225 1.475
6.4250002 -1.375 1.525
6.4250002 -1.325 1.525
6.4250002 -1.375 1.575
6.4250002 -1.325 1.575
6.4250002 -1.275 1.525
6.4250002 -1.225 1.525
6.4250002 -1.275 1.575
6.4250002 -1.225 1.575
6.4250002 -1.175 1.225
6.4250002 -1.175 1.275
6.4250002 -1.175 1.325
6.6750002 -1.175 1.275
6.6750002 -1.125 1.275
6.7249999 -1.175 1.225
6.7750001 -1.175 1.225
6.7249999 -1.125 1.225
6.7249999 -1.175 1.275
6.7750001 -1.175 1.275
6.7249999 -1.125 1.275
6.7750001 -1.125 1.275
6.7750001 -1.175 1.325
6.7249999 -1.125 1.325
6.7750001 -1.125 1.325
6.7249999 -1.175 1.375
6.7750001 -1.175 1.375
6.7249999 -1.125 1.375
6.4250002 -1.175 1.425
6.4250002 -1.175 1.525
6.4250002 -1.175 1.575
6.625 -1.175 1.425
6.6750002 -1.175 1.425
6.6750002 -1.125 1.425
6.7249999 -1.175 1.425
6.7249999 -1.125 1.425
6.7750001 -1.125 1.425
6.7750001 -1.175 1.475
6.7750001 -1.125 1.475
6.7249999 -1.175 1.525
6.7750001 -1.175 1.525
6.7249999 -1.125 1.525
6.7750001 -1.125 1.525
6.7249999 -1.175 1.575
6.7249999 -1.125 1.575
6.8249998 -1.125 1.225
6.875 -1.175 1.275
6.8249998 -1.125 1.275
6.875 -1.125 1.275
6.9250002 -1.125 1.225
6.9749999 -1.125 1.225
6.9250002 -1.125 1.275
6.9749999 -1.125 1.275
6.8249998 -1.125 1.325
6.875 -1.125 1.325
6.8249998 -1.125 1.375
6.875 -1.125 1.375
6.9749999 -1.125 1.325
6.9250002 -1.125 1.375
6.9749999 -1.125 1.375
7.0250001 -1.125 1.225
7.0250001 -1.125 1.275
7.0749998 -1.125 1.275
7.125 -1.125 1.225
7.1750002 -1.125 1.225
7.125 -1.125 1.275
7.1750002 -1.125 1.275
7.0250001 -1.125 1.325
7.0749998 -1.125 1.325
7.0250001 -1.125 1.375
7.125 -1.125 1.325
7.1750002 -1.125 1.325
7.125 -1.125 1.375
7.1750002 -1.125 1.375
6.875 -1.125 1.425
6.8249998 -1.125 1.475
6.9749999 -1.125 1.425
6.9250002 -1.125 1.475
6.9749999 -1.125 1.475
6.8249998 -1.125 1.525
6.875 -1.125 1.525
6.8249998 -1.125 1.575
6.875 -1.125 1.575
6.9749999 -1.125 1.525
6.9250002 -1.125 1.575
6.9749999 -1.125 1.575
7.0749998 -1.125 1.425
7.0250001 -1.125 1.475
7.0749998 -1.125 1.475
7.1750002 -1.125 1.425
7.125 -1.125 1.475
7.0250001 -1.125 1.525
7.0749998 -1.125 1.525
7.0250001 -1.125 1.575
7.0749998 -1.125 1.575
7.125 -1.125 1.525
7.1750002 -1.125 1.525
7.125 -1.125 1.575
7.2249999 -1.125 0.82499999
7.2750001 -1.125 0.82499999
7.2249999 -1.125 0.875
7.2750001 -1.125 0.875
7.3249998 -1.125 0.82499999
7.375 -1.125 0.82499999
7.375 -1.125 0.875
7.2750001 -1.125 0.92500001
7.2249999 -1.125 0.97500002
7.2750001 -1.125 0.97500002
7.3249998 -1.125 0.92500001
7.3249998 -1.125 0.97500002
7.375 -1.125 0.97500002
7.4250002 -1.125 0.82499999
7.4749999 -1.125 0.875
7.5250001 -1.125 0.82499999
7.5749998 -1.125 0.875
7.4250002 -1.125 0.92500001
7.4749999 -1.125 0.92500001
7.4250002 -1.125 0.97500002
7.4749999 -1.125 0.97500002
7.5250001 -1.125 0.92500001
7.5749998 -1.125 0.97500002
7.2249999 -1.125 1.025
7.2750001 -1.125 1.025
7.2750001 -1.125 1.075
7.3249998 -1.125 1.025
7.375 -1.125 1.025
7.3249998 -1.125 1.075
7.2249999 -1.125 1.125
7.2750001 -1.125 1.125
7.2249999 -1.125 1.175
7.375 -1.125 1.125
7.3249998 -1.125 1.175
7.375 -1.125 1.175
7.4250002 -1.125 1.025
7.4749999 -1.125 1.025
7.4749999 -1.125 1.075
7.5250001 -1.125 1.025
7.5749998 -1.125 1.075
7.4250002 -1.125 1.125
7.4749999 -1.125 1.125
7.4250002 -1.125 1.175
7.5749998 -1.125 1.125
7.625 -1.125 0.82499999
7.625 -1.125 0.875
7.6750002 -1.125 0.875
7.7249999 -1.125 0.82499999
7.625 -1.175 0.92500001
7.625 -1.125 0.92500001
7.625 -1.125 0.97500002
7.7249999 -1.125 0.92500001
7.8249998 -1.125 0.82499999
7.875 -1.125 0.82499999
7.9250002 -1.125 0.82499999
7.8249998 -1.125 0.92500001
7.625 -1.125 1.025
7.6750002 -1.125 1.075
7.7249999 -1.125 1.025
7.2249999 -1.125 1.225
7.2750001 -1.125 1.225
7.2249999 -1.125 1.275
7.2750001 -1.125 1.275
7.3249998 -1.125 1.225
7.375 -1.125 1.225
7.2249999 -1.125 1.325
7.2750001 -1.125 1.325
7.2750001 -1.125 1.375
7.3249998 -1.125 1.325
7.375 -1.125 1.375
7.4250002 -1.125 1.225
7.4749999 -1.125 1.275
7.5250001 -1.125 1.225
7.4250002 -1.125 1.325
7.4749999 -1.125 1.375
7.5250001 -1.125 1.325
7.5749998 -1.175 1.375
7.5749998 -1.125 1.375
7.2249999 -1.125 1.425
7.2249999 -1.125 1.475
7.2750001 -1.125 1.475
7.375 -1.125 1.425
7.2750001 -1.125 1.525
7.375 -1.125 1.575
7.625 -1.125 1.375
8.0249996 -1.125 0.075000003
8.0749998 -1.125 0.175
8.0249996 -1.125 0.22499999
8.0249996 -1.125 0.42500001
8.0749998 -1.125 0.42500001
8.0249996 -1.125 0.52499998
8.0249996 -1.125 0.57499999
8.125 -1.125 0.52499998
8.125 -1.125 0.57499999
8.0749998 -1.175 0.875
8.0749998 -1.125 0.875
6.4749999 -3.175 1.625
6.4749999 -3.125 1.625
6.4749999 -3.175 1.675
6.4749999 -3.125 1.675
6.4250002 -3.075 1.625
6.4749999 -3.075 1.625
6.4749999 -3.0250001 1.625
6.4749999 -3.075 1.675
6.4749999 -3.0250001 1.675
6.4749999 -3.175 1.725
6.4749999 -3.125 1.725
6.4250002 -3.175 1.775
6.4749999 -3.175 1.775
6.4250002 -3.125 1.775
6.4749999 -3.125 1.775
6.4749999 -3.075 1.725
6.4749999 -3.0250001 1.725
6.4749999 -3.075 1.775
6.4250002 -3.0250001 1.775
6.4749999 -3.0250001 1.775
6.4250002 -2.9749999 1.625
6.4749999 -2.9749999 1.625
6.4250002 -2.925 1.625
6.4749999 -2.925 1.625
6.4250002 -2.9749999 1.675
6.4749999 -2.9749999 1.675
6.4749999 -2.925 1.675
6.4250002 -2.875 1.625
6.4749999 -2.875 1.625
6.4250002 -2.825 1.625
6.4749999 -2.825 1.625
6.4749999 -2.875 1.675
6.4749999 -2.825 1.675
6.4749999 -2.9749999 1.725
6.4749999 -2.925 1.725
6.4250002 -2.9749999 1.775
6.4749999 -2.9749999 1.775
6.4250002 -2.925 1.775
6.4749999 -2.925 1.775
6.4250002 -2.875 1.725
6.4749999 -2.875 1.725
6.4749999 -2.825 1.725
6.4250002 -2.875 1.775
6.4749999 -2.875 1.775
6.4749999 -2.825 1.775
6.4749999 -3.175 1.825
6.4250002 -3.125 1.825
6.4749999 -3.125 1.825
6.4250002 -3.175 1.875
6.4749999 -3.175 1.875
6.4250002 -3.125 1.875
6.4749999 -3.125 1.875
6.4250002 -3.075 1.825
6.4749999 -3.075 1.825
6.4749999 -3.0250001 1.825
6.4250002 -3.075 1.875
6.4749999 -3.075 1.875
6.4250002 -3.0250001 1.875
6.4749999 -3.0250001 1.875
6.4749999 -3.175 1.925
6.4250002 -3.125 1.925
6.4749999 -3.125 1.925
6.4749999 -3.175 1.975
6.4749999 -3.125 1.975
6.4250002 -3.075 1.925
6.4749999 -3.075 1.925
6.4749999 -3.0250001 1.925
6.4749999 -3.075 1.975
6.4250002 -3.0250001 1.975
6.4749999 -3.0250001 1.975
6.4749999 -2.9749999 1.825
6.4250002 -2.925 1.825
6.4749999 -2.925 1.825
6.4250002 -2.9749999 1.875
6.4749999 -2.9749999 1.875
6.4250002 -2.925 1.875
6.4749999 -2.925 1.875
6.4749999 -2.875 1.825
6.4749999 -2.825 1.825
6.4749999 -2.875 1.875
6.4250002 -2.825 1.875
6.4749999 -2.825 1.875
6.4749999 -2.9749999 1.925
6.4749999 -2.925 1.925
6.4250002 -2.9749999 1.975
6.4749999 -2.9749999 1.975
6.4749999 -2.925 1.975
6.4250002 -2.875 1.925
6.4749999 -2.875 1.925
6.4250002 -2.825 1.925
6.4749999 -2.825 1.925
6.4250002 -2.875 1.975
6.4749999 -2.875 1.975
6.4250002 -2.825 1.975
6.4749999 -2.825 1.975
6.4250002 -2.7750001 1.625
6.4749999 -2.7750001 1.625
6.4250002 -2.7249999 1.625
6.4749999 -2.7249999 1.625
6.4250002 -2.7750001 1.675
6.4749999 -2.7750001 1.675
6.4250002 -2.7249999 1.675
6.4749999 -2.7249999 1.675
6.4250002 -2.675 1.625
6.4749999 -2.675 1.625
6.4250002 -2.625 1.625
6.4250002 -2.675 1.675
6.4749999 -2.675 1.675
6.4250002 -2.625 1.675
6.4749999 -2.7750001 1.725
6.4749999 -2.7249999 1.725
6.4749999 -2.7750001 1.775
6.4250002 -2.7249999 1.775
6.4749999 -2.7249999 1.775
6.4250002 -2.675 1.725
6.4749999 -2.675 1.725
6.4250002 -2.625 1.725
6.4250002 -2.675 1.775
6.4749999 -2.675 1.775
6.4250002 -2.625 1.775
6.4749999 -2.625 1.775
6.4250002 -2.575 1.625
6.4749999 -2.575 1.625
6.4250002 -2.5250001 1.625
6.4250002 -2.575 1.675
6.4749999 -2.575 1.675
6.4250002 -2.5250001 1.675
6.4250002 -2.4749999 1.625
6.4250002 -2.425 1.625
6.4250002 -2.4749999 1.675
6.4250002 -2.425 1.675
6.4749999 -2.425 1.675
6.4749999 -2.575 1.725
6.4250002 -2.5250001 1.725
6.4749999 -2.5250001 1.725
6.4250002 -2.575 1.775
6.4250002 -2.5250001 1.775
6.4749999 -2.5250001 1.775
6.4250002 -2.4749999 1.725
6.4749999 -2.4749999 1.725
6.4250002 -2.425 1.725
6.4749999 -2.425 1.725
6.4250002 -2.4749999 1.775
6.4749999 -2.4749999 1.775
6.4250002 -2.425 1.775
6.4749999 -2.425 1.775
6.4749999 -2.7750001 1.825
6.4250002 -2.7249999 1.825
6.4749999 -2.7249999 1.825
6.4250002 -2.7750001 1.875
6.4749999 -2.7750001 1.875
6.4749999 -2.7249999 1.875
6.4250002 -2.675 1.825
6.4749999 -2.675 1.825
6.4250002 -2.625 1.825
6.4749999 -2.625 1.825
6.4250002 -2.675 1.875
6.4749999 -2.675 1.875
6.4749999 -2.625 1.875
6.4250002 -2.7750001 1.925
6.4749999 -2.7249999 1.925
6.4250002 -2.7750001 1.975
6.4749999 -2.7750001 1.975
6.4250002 -2.7249999 1.975
6.4749999 -2.7249999 1.975
6.4749999 -2.675 1.925
6.4749999 -2.625 1.925
6.4250002 -2.675 1.975
6.4749999 -2.675 1.975
6.4250002 -2.625 1.975
6.4749999 -2.625 1.975
6.4250002 -2.575 1.825
6.4749999 -2.575 1.825
6.4749999 -2.5250001 1.825
6.4749999 -2.575 1.875
6.4250002 -2.5250001 1.875
6.4749999 -2.5250001 1.875
6.4749999 -2.4749999 1.825
6.4749999 -2.425 1.825
6.4250002 -2.4749999 1.875
6.4749999 -2.4749999 1.875
6.4749999 -2.425 1.875
6.4749999 -2.575 1.925
6.4749999 -2.5250001 1.925
6.4250002 -2.575 1.975
6.4749999 -2.575 1.975
6.4250002 -2.5250001 1.975
6.4749999 -2.5250001 1.975
6.4749999 -2.4749999 1.925
6.4749999 -2.425 1.925
6.4250002 -2.4749999 1.975
6.4749999 -2.4749999 1.975
6.4250002 -2.425 1.975
6.4749999 -2.425 1.975
6.4250002 -3.175 2.0250001
6.4749999 -3.175 2.0250001
6.4749999 -3.125 2.0250001
6.4250002 -3.175 2.075
6.4749999 -3.175 2.075
6.4250002 -3.125 2.075
6.4749999 -3.125 2.075
6.4250002 -3.075 2.0250001
6.4749999 -3.075 2.0250001
6.4749999 -3.0250001 2.0250001
6.4250002 -3.075 2.075
6.4749999 -3.075 2.075
6.4250002 -3.0250001 2.075
6.4749999 -3.0250001 2.075
6.4749999 -3.175 2.125
6.4250002 -3.125 2.125
6.4749999 -3.175 2.175
6.4250002 -3.125 2.175
6.4749999 -3.125 2.175
6.4250002 -3.075 2.125
6.4250002 -3.0250001 2.125
6.4250002 -3.075 2.175
6.4749999 -3.075 2.175
6.4250002 -3.0250001 2.175
6.4749999 -3.0250001 2.175
6.4250002 -2.9749999 2.0250001
6.4749999 -2.9749999 2.0250001
6.4250002 -2.925 2.0250001
6.4749999 -2.925 2.0250001
6.4250002 -2.9749999 2.075
6.4749999 -2.9749999 2.075
6.4250002 -2.925 2.075
6.4749999 -2.925 2.075
6.4250002 -2.875 2.0250001
6.4749999 -2.875 2.0250001
6.4749999 -2.825 2.0250001
6.4250002 -2.875 2.075
6.4749999 -2.875 2.075
6.4250002 -2.825 2.075
6.4749999 -2.825 2.075
6.4250002 -2.9749999 2.125
6.4749999 -2.9749999 2.125
6.4250002 -2.925 2.125
6.4749999 -2.925 2.125
6.4749999 -2.9749999 2.175
6.4749999 -2.925 2.175
6.4250002 -2.875 2.125
6.4749999 -2.875 2.125
6.4749999 -2.825 2.125
6.4749999 -2.875 2.175
6.4749999 -2.825 2.175
6.4250002 -3.175 2.2249999
6.4749999 -3.175 2.2249999
6.4749999 -3.125 2.2249999
6.4749999 -3.175 2.2750001
6.4749999 -3.125 2.2750001
6.4749999 -3.075 2.2249999
6.4250002 -3.0250001 2.2249999
6.4749999 -3.0250001 2.2249999
6.4250002 -3.075 2.2750001
6.4749999 -3.075 2.2750001
6.4250002 -3.0250001 2.2750001
6.4749999 -3.175 2.325
6.4749999 -3.125 2.325
6.4749999 -3.175 2.375
6.4749999 -3.125 2.375
6.4749999 -3.075 2.325
6.4749999 -3.0250001 2.325
6.4749999 -3.075 2.375
6.4749999 -3.0250001 2.375
6.4250002 -2.9749999 2.2249999
6.4749999 -2.9749999 2.2249999
6.4250002 -2.925 2.2249999
6.4749999 -2.925 2.2249999
6.4749999 -2.9749999 2.2750001
6.4749999 -2.925 2.2750001
6.4749999 -2.875 2.2249999
6.4749999 -2.825 2.2249999
6.4749999 -2.875 2.2750001
6.4749999 -2.825 2.2750001
6.4250002 -2.9749999 2.325
6.4749999 -2.9749999 2.325
6.4749999 -2.925 2.325
6.4749999 -2.9749999 2.375
6.4250002 -2.925 2.375
6.4749999 -2.925 2.375
6.4749999 -2.875 2.325
6.4749999 -2.825 2.325
6.4749999 -2.875 2.375
6.4749999 -2.825 2.375
6.4749999 -2.7750001 2.0250001
6.4749999 -2.7249999 2.0250001
6.4749999 -2.7750001 2.075
6.4749999 -2.7249999 2.075
6.4749999 -2.675 2.0250001
6.4749999 -2.625 2.0250001
6.4749999 -2.675 2.075
6.4749999 -2.625 2.075
6.4749999 -2.7750001 2.125
6.4749999 -2.7249999 2.125
6.4749999 -2.7750001 2.175
6.4749999 -2.7249999 2.175
6.4749999 -2.675 2.125
6.4749999 -2.625 2.125
6.4749999 -2.675 2.175
6.4749999 -2.625 2.175
6.4749999 -2.575 2.0250001
6.4749999 -2.5250001 2.0250001
6.4749999 -2.575 2.075
6.4749999 -2.5250001 2.075
6.4749999 -2.4749999 2.0250001
6.4749999 -2.425 2.0250001
6.4749999 -2.4749999 2.075
6.4749999 -2.425 2.075
6.4749999 -2.575 2.125
6.4749999 -2.5250001 2.125
6.4749999 -2.575 2.175
6.4749999 -2.5250001 2.175
6.4749999 -2.4749999 2.125
6.4749999 -2.425 2.125
6.4749999 -2.4749999 2.175
6.4749999 -2.425 2.175
6.4749999 -2.7750001 2.2249999
6.4749999 -2.7249999 2.2249999
6.4749999 -2.7750001 2.2750001
6.4749999 -2.7249999 2.2750001
6.4749999 -2.675 2.2249999
6.4749999 -2.625 2.2249999
6.4749999 -2.675 2.2750001
6.4749999 -2.625 2.2750001
6.4749999 -2.7750001 2.325
6.4749999 -2.7249999 2.325
6.4749999 -2.7750001 2.375
6.4749999 -2.7249999 2.375
6.4749999 -2.675 2.325
6.4749999 -2.625 2.325
6.4749999 -2.675 2.375
6.4749999 -2.625 2.375
6.4749999 -2.575 2.2249999
6.4749999 -2.5250001 2.2249999
6.4749999 -2.575 2.2750001
6.4749999 -2.5250001 2.2750001
6.4749999 -2.4749999 2.2249999
6.4749999 -2.425 2.2249999
6.4749999 -2.4749999 2.2750001
6.4749999 -2.425 2.2750001
6.4749999 -2.575 2.325
6.4749999 -2.5250001 2.325
6.4749999 -2.575 2.375
6.4749999 -2.5250001 2.375
6.4749999 -2.4749999 2.325
6.4749999 -2.425 2.325
6.4749999 -2.4749999 2.375
6.4749999 -2.425 2.375
6.4250002 -2.375 1.625
6.4749999 -2.375 1.625
6.4250002 -2.325 1.625
6.4749999 -2.325 1.625
6.4250002 -2.375 1.675
6.4749999 -2.375 1.675
6.4250002 -2.325 1.675
6.4749999 -2.325 1.675
6.4250002 -2.2750001 1.625
6.4749999 -2.2750001 1.625
6.4250002 -2.2249999 1.625
6.4250002 -2.2750001 1.675
6.4749999 -2.2750001 1.675
6.4250002 -2.2249999 1.675
6.4250002 -2.375 1.725
6.4749999 -2.375 1.725
6.4250002 -2.325 1.725
6.4749999 -2.375 1.775
6.4749999 -2.325 1.775
6.4250002 -2.2750001 1.725
6.4749999 -2.2750001 1.725
6.4250002 -2.2249999 1.725
6.4749999 -2.2750001 1.775
6.4250002 -2.2249999 1.775
6.4749999 -2.2249999 1.775
6.4250002 -2.175 1.625
6.4250002 -2.125 1.625
6.4250002 -2.175 1.675
6.4749999 -2.175 1.675
6.4250002 -2.125 1.675
6.4749999 -2.125 1.675
6.4250002 -2.075 1.625
6.4250002 -2.0250001 1.625
6.4250002 -2.075 1.675
6.4250002 -2.0250001 1.675
6.4250002 -2.175 1.725
6.4749999 -2.175 1.725
6.4250002 -2.125 1.725
6.4250002 -2.175 1.775
6.4749999 -2.175 1.775
6.4250002 -2.125 1.775
6.4749999 -2.125 1.775
6.4250002 -2.075 1.725
6.4250002 -2.0250001 1.725
6.4250002 -2.075 1.775
6.4250002 -2.0250001 1.775
6.4250002 -2.375 1.825
6.4749999 -2.375 1.825
6.4250002 -2.325 1.825
6.4749999 -2.325 1.825
6.4250002 -2.375 1.875
6.4749999 -2.375 1.875
6.4749999 -2.325 1.875
6.4749999 -2.2750001 1.825
6.4749999 -2.2249999 1.825
6.4749999 -2.2750001 1.875
6.4250002 -2.2249999 1.875
6.4749999 -2.2249999 1.875
6.4749999 -2.375 1.925
6.4749999 -2.325 1.925
6.4749999 -2.375 1.975
6.4749999 -2.325 1.975
6.4749999 -2.2750001 1.925
6.4749999 -2.2249999 1.925
6.4250002 -2.2750001 1.975
6.4749999 -2.2750001 1.975
6.4250002 -2.2249999 1.975
6.4749999 -2.2249999 1.975
6.4749999 -2.175 1.825
6.4250002 -2.125 1.825
6.4749999 -2.125 1.825
6.4250002 -2.175 1.875
6.4749999 -2.175 1.875
6.4250002 -2.125 1.875
6.4250002 -2.075 1.825
6.4250002 -2.0250001 1.825
6.4749999 -2.0250001 1.825
6.4250002 -2.075 1.875
6.4250002 -2.0250001 1.875
6.4749999 -2.175 1.925
6.4749999 -2.125 1.925
6.4250002 -2.175 1.975
6.4250002 -2.125 1.975
6.4250002 -2.075 1.925
6.4749999 -2.075 1.925
6.4250002 -2.0250001 1.925
6.4749999 -2.0250001 1.925
6.4250002 -2.075 1.975
6.4749999 -2.075 1.975
6.4250002 -2.0250001 1.975
6.4749999 -2.0250001 1.975
6.4250002 -1.975 1.625
6.4250002 -1.925 1.625
6.4250002 -1.975 1.675
6.4250002 -1.925 1.675
6.4250002 -1.875 1.625
6.4250002 -1.825 1.625
6.4250002 -1.875 1.675
6.4250002 -1.825 1.675
6.4250002 -1.975 1.725
6.4250002 -1.925 1.725
6.4250002 -1.975 1.775
6.4250002 -1.925 1.775
6.4250002 -1.875 1.725
6.4250002 -1.825 1.725
6.4250002 -1.875 1.775
6.4250002 -1.825 1.775
6.4250002 -1.775 1.625
6.4250002 -1.725 1.625
6.4250002 -1.775 1.675
6.4250002 -1.725 1.675
6.4250002 -1.675 1.625
6.4250002 -1.625 1.625
6.4250002 -1.675 1.675
6.4250002 -1.625 1.675
6.4250002 -1.775 1.725
6.4250002 -1.725 1.725
6.4250002 -1.775 1.775
6.4250002 -1.725 1.775
6.4250002 -1.675 1.725
6.4250002 -1.625 1.725
6.4250002 -1.675 1.775
6.4250002 -1.625 1.775
6.4250002 -1.975 1.825
6.4250002 -1.925 1.825
6.4250002 -1.975 1.875
6.4250002 -1.925 1.875
6.4250002 -1.875 1.825
6.4250002 -1.825 1.825
6.4250002 -1.875 1.875
6.4250002 -1.825 1.875
6.4250002 -1.975 1.925
6.4250002 -1.925 1.925
6.4250002 -1.975 1.975
6.4749999 -1.975 1.975
6.4250002 -1.925 1.975
6.4250002 -1.875 1.925
6.4250002 -1.825 1.925
6.4250002 -1.875 1.975
6.4250002 -1.825 1.975
6.4250002 -1.775 1.825
6.4250002 -1.725 1.825
6.4250002 -1.775 1.875
6.4250002 -1.725 1.875
6.4250002 -1.675 1.825
6.4250002 -1.625 1.825
6.4250002 -1.675 1.875
6.4250002 -1.625 1.875
6.4250002 -1.775 1.925
6.4250002 -1.725 1.925
6.4250002 -1.775 1.975
6.4250002 -1.725 1.975
6.4250002 -1.675 1.925
6.4250002 -1.625 1.925
6.4250002 -1.675 1.975
6.4250002 -1.625 1.975
6.4749999 -2.375 2.0250001
6.4749999 -2.325 2.0250001
6.4749999 -2.375 2.075
6.4749999 -2.325 2.075
6.4749999 -2.2750001 2.0250001
6.4749999 -2.2249999 2.0250001
6.4749999 -2.2750001 2.075
6.4749999 -2.2249999 2.075
6.4749999 -2.375 2.125
6.4749999 -2.325 2.125
6.4749999 -2.375 2.175
6.4749999 -2.325 2.175
6.4749999 -2.2750001 2.125
6.4749999 -2.2249999 2.125
6.4749999 -2.2750001 2.175
6.4749999 -2.2249999 2.175
6.4749999 -2.175 2.0250001
6.4749999 -2.125 2.0250001
6.4749999 -2.175 2.075
6.4749999 -2.125 2.075
6.4749999 -2.075 2.0250001
6.4749999 -2.0250001 2.0250001
6.4749999 -2.075 2.075
6.4749999 -2.0250001 2.075
6.4749999 -2.175 2.125
6.4749999 -2.125 2.125
6.4749999 -2.175 2.175
6.4749999 -2.125 2.175
6.4749999 -2.075 2.125
6.4749999 -2.0250001 2.125
6.4749999 -2.075 2.175
6.4749999 -2.0250001 2.175
6.4749999 -2.375 2.2249999
6.4749999 -2.325 2.2249999
6.4749999 -2.375 2.2750001
6.4749999 -2.325 2.2750001
6.4749999 -2.2750001 2.2249999
6.4749999 -2.2249999 2.2249999
6.4749999 -2.2750001 2.2750001
6.4749999 -2.2249999 2.2750001
6.4749999 -2.375 2.325
6.4749999 -2.325 2.325
6.4749999 -2.375 2.375
6.4749999 -2.325 2.375
6.4749999 -2.2750001 2.325
6.4749999 -2.2249999 2.325
6.4749999 -2.2750001 2.375
6.4749999 -2.2249999 2.375
6.4749999 -2.175 2.2249999
6.4749999 -2.125 2.2249999
6.4749999 -2.175 2.2750001
6.4749999 -2.125 2.2750001
6.4749999 -2.075 2.2249999
6.4749999 -2.0250001 2.2249999
6.4749999 -2.075 2.2750001
6.4749999 -2.0250001 2.2750001
6.4749999 -2.175 2.325
6.4749999 -2.125 2.325
6.4749999 -2.175 2.375
6.4749999 -2.125 2.375
6.4749999 -2.075 2.325
6.4749999 -2.0250001 2.325
6.4749999 -2.075 2.375
6.4749999 -2.0250001 2.375
6.4250002 -1.975 2.0250001
6.4749999 -1.975 2.0250001
6.4749999 -1.925 2.0250001
6.4749999 -1.975 2.075
6.4250002 -1.925 2.075
6.4749999 -1.925 2.075
6.4250002 -1.875 2.0250001
6.4749999 -1.875 2.0250001
6.4250002 -1.825 2.0250001
6.4250002 -1.875 2.075
6.4749999 -1.875 2.075
6.4250002 -1.825 2.075
6.4749999 -1.825 2.075
6.4250002 -1.975 2.125
6.4749999 -1.975 2.125
6.4250002 -1.925 2.125
6.4749999 -1.925 2.125
6.4749999 -1.975 2.175
6.4250002 -1.925 2.175
6.4749999 -1.925 2.175
6.4250002 -1.875 2.125
6.4749999 -1.875 2.125
6.4749999 -1.825 2.125
6.4749999 -1.875 2.175
6.4749999 -1.825 2.175
6.4250002 -1.775 2.0250001
6.4250002 -1.725 2.0250001
6.4749999 -1.725 2.0250001
6.4250002 -1.775 2.075
6.4749999 -1.775 2.075
6.4250002 -1.725 2.075
6.4749999 -1.725 2.075
6.4250002 -1.675 2.0250001
6.4250002 -1.625 2.0250001
6.4250002 -1.675 2.075
6.4250002 -1.625 2.075
6.4250002 -1.775 2.125
6.4250002 -1.725 2.125
6.4749999 -1.725 2.125
6.4250002 -1.775 2.175
6.4749999 -1.775 2.175
6.4250002 -1.725 2.175
6.4749999 -1.725 2.175
6.4250002 -1.675 2.125
6.4749999 -1.675 2.125
6.4250002 -1.625 2.125
6.4250002 -1.675 2.175
6.4749999 -1.675 2.175
6.4250002 -1.625 2.175
6.4749999 -1.625 2.175
6.4749999 -1.975 2.2249999
6.4749999 -1.925 2.2249999
6.4749999 -1.975 2.2750001
6.4749999 -1.925 2.2750001
6.4749999 -1.875 2.2249999
6.4749999 -1.825 2.2249999
6.4749999 -1.875 2.2750001
6.4749999 -1.825 2.2750001
6.4749999 -1.975 2.325
6.4749999 -1.925 2.325
6.4749999 -1.975 2.375
6.4749999 -1.925 2.375
6.4749999 -1.875 2.325
6.4749999 -1.825 2.325
6.4749999 -1.875 2.375
6.4749999 -1.825 2.375
6.4749999 -1.775 2.2249999
6.4749999 -1.725 2.2249999
6.4749999 -1.775 2.2750001
6.4749999 -1.725 2.2750001
6.4749999 -1.675 2.2249999
6.4749999 -1.625 2.2249999
6.4749999 -1.675 2.2750001
6.4250002 -1.625 2.2750001
6.4749999 -1.625 2.2750001
6.4749999 -1.775 2.325
6.4749999 -1.725 2.325
6.4749999 -1.775 2.375
6.4749999 -1.725 2.375
6.4749999 -1.675 2.325
6.4749999 -1.625 2.325
6.4749999 -1.675 2.375
6.4749999 -1.625 2.375
6.4749999 -3.175 2.425
6.4749999 -3.125 2.425
6.4749999 -3.175 2.4749999
6.4749999 -3.125 2.4749999
6.5250001 -3.125 2.425
6.5250001 -3.175 2.4749999
6.5250001 -3.125 2.4749999
6.4749999 -3.075 2.425
6.4749999 -3.0250001 2.425
6.4749999 -3.075 2.4749999
6.4749999 -3.0250001 2.4749999
6.5250001 -3.075 2.425
6.5250001 -3.0250001 2.425
6.4250002 -3.175 2.5250001
6.4250002 -3.125 2.5250001
6.5250001 -3.175 2.5250001
6.4250002 -3.075 2.5250001
6.4250002 -3.0250001 2.5250001
6.4749999 -3.0250001 2.5250001
6.4250002 -3.075 2.575
6.4250002 -3.0250001 2.575
6.4749999 -2.9749999 2.425
6.4749999 -2.925 2.425
6.4749999 -2.9749999 2.4749999
6.4749999 -2.925 2.4749999
6.4749999 -2.875 2.425
6.4749999 -2.825 2.425
6.4749999 -2.875 2.4749999
6.4749999 -2.825 2.4749999
6.4250002 -2.9749999 2.5250001
6.4749999 -2.9749999 2.5250001
6.4250002 -2.925 2.5250001
6.4749999 -2.925 2.5250001
6.4250002 -2.875 2.5250001
6.4749999 -2.875 2.5250001
6.4250002 -2.825 2.5250001
6.4749999 -2.825 2.5250001
6.5250001 -2.825 2.5250001
6.5250001 -2.825 2.575
6.4749999 -2.7750001 2.425
6.4749999 -2.7249999 2.425
6.4749999 -2.7750001 2.4749999
6.4749999 -2.7249999 2.4749999
6.4749999 -2.675 2.425
6.4749999 -2.625 2.425
6.4749999 -2.675 2.4749999
6.4749999 -2.625 2.4749999
6.4250002 -2.7750001 2.5250001
6.4749999 -2.7750001 2.5250001
6.4250002 -2.7249999 2.5250001
6.4749999 -2.7249999 2.5250001
6.5250001 -2.7750001 2.5250001
6.4250002 -2.675 2.5250001
6.4749999 -2.675 2.5250001
6.4250002 -2.625 2.5250001
6.4749999 -2.625 2.5250001
6.4250002 -2.675 2.575
6.4749999 -2.575 2.425
6.4749999 -2.5250001 2.425
6.4749999 -2.575 2.4749999
6.4749999 -2.5250001 2.4749999
6.4749999 -2.4749999 2.425
6.4749999 -2.425 2.425
6.4749999 -2.4749999 2.4749999
6.4749999 -2.425 2.4749999
6.4250002 -2.575 2.5250001
6.4749999 -2.575 2.5250001
6.4250002 -2.5250001 2.5250001
6.4749999 -2.5250001 2.5250001
6.4250002 -2.575 2.575
6.4250002 -2.5250001 2.575
6.4250002 -2.4749999 2.5250001
6.4749999 -2.4749999 2.5250001
6.4749999 -2.425 2.5250001
6.4250002 -2.425 2.575
6.4749999 -2.375 2.425
6.4749999 -2.325 2.425
6.4749999 -2.375 2.4749999
6.4749999 -2.325 2.4749999
6.4749999 -2.2750001 2.425
6.4749999 -2.2249999 2.425
6.4749999 -2.2750001 2.4749999
6.4749999 -2.2249999 2.4749999
6.4749999 -2.375 2.5250001
6.4749999 -2.325 2.5250001
6.4250002 -2.375 2.575
6.4749999 -2.375 2.575
6.4250002 -2.325 2.575
6.4749999 -2.325 2.575
6.4749999 -2.2750001 2.5250001
6.4749999 -2.2249999 2.5250001
6.4250002 -2.2750001 2.575
6.4749999 -2.2750001 2.575
6.4250002 -2.2249999 2.575
6.4749999 -2.175 2.425
6.4749999 -2.125 2.425
6.4749999 -2.175 2.4749999
6.4749999 -2.125 2.4749999
6.4749999 -2.075 2.425
6.4749999 -2.0250001 2.425
6.4749999 -2.075 2.4749999
6.4749999 -2.0250001 2.4749999
6.4749999 -2.175 2.5250001
6.4749999 -2.125 2.5250001
6.4250002 -2.175 2.575
6.4250002 -2.125 2.575
6.4749999 -2.075 2.5250001
6.4749999 -2.0250001 2.5250001
6.4250002 -2.075 2.575
6.4250002 -2.0250001 2.575
6.4749999 -1.975 2.425
6.4749999 -1.925 2.425
6.4749999 -1.975 2.4749999
6.4749999 -1.925 2.4749999
6.4749999 -1.875 2.425
6.4749999 -1.825 2.425
6.4749999 -1.875 2.4749999
6.4749999 -1.825 2.4749999
6.4749999 -1.975 2.5250001
6.4749999 -1.925 2.5250001
6.4250002 -1.975 2.575
6.4250002 -1.925 2.575
6.4749999 -1.875 2.5250001
6.4749999 -1.825 2.5250001
6.4250002 -1.875 2.575
6.4250002 -1.825 2.575
6.4749999 -1.825 2.575
6.4749999 -1.775 2.425
6.4749999 -1.725 2.425
6.4749999 -1.775 2.4749999
6.4749999 -1.725 2.4749999
6.4749999 -1.675 2.425
6.4749999 -1.625 2.425
6.4749999 -1.675 2.4749999
6.4749999 -1.625 2.4749999
6.4749999 -1.775 2.5250001
6.4749999 -1.725 2.5250001
6.4250002 -1.775 2.575
6.4749999 -1.775 2.575
6.4250002 -1.725 2.575
6.4749999 -1.725 2.575
6.4749999 -1.675 2.5250001
6.4749999 -1.625 2.5250001
6.4250002 -1.675 2.575
6.4749999 -1.675 2.575
6.4250002 -1.625 2.575
6.4749999 -1.625 2.575
6.4250002 -1.575 1.625
6.4250002 -1.525 1.625
6.4250002 -1.575 1.675
6.4250002 -1.525 1.675
6.4250002 -1.475 1.625
6.4250002 -1.425 1.625
6.4250002 -1.475 1.675
6.4250002 -1.425 1.675
6.4250002 -1.575 1.725
6.4250002 -1.525 1.725
6.4250002 -1.575 1.775
6.4250002 -1.525 1.775
6.4250002 -1.475 1.725
6.4250002 -1.425 1.725
6.4250002 -1.475 1.775
6.4250002 -1.425 1.775
6.4250002 -1.375 1.625
6.4250002 -1.325 1.625
6.4250002 -1.375 1.675
6.4250002 -1.325 1.675
6.4250002 -1.275 1.625
6.4250002 -1.225 1.625
6.4250002 -1.275 1.675
6.4250002 -1.225 1.675
6.4250002 -1.375 1.725
6.4250002 -1.325 1.725
6.4250002 -1.375 1.775
6.4250002 -1.325 1.775
6.4250002 -1.275 1.725
6.4250002 -1.225 1.725
6.4250002 -1.275 1.775
6.4250002 -1.225 1.775
6.4250002 -1.575 1.825
6.4250002 -1.525 1.825
6.4250002 -1.575 1.875
6.4250002 -1.525 1.875
6.4250002 -1.475 1.825
6.4250002 -1.425 1.825
6.4250002 -1.475 1.875
6.4250002 -1.425 1.875
6.4250002 -1.575 1.925
6.4250002 -1.525 1.925
6.4250002 -1.575 1.975
6.4250002 -1.525 1.975
6.4250002 -1.475 1.925
6.4250002 -1.425 1.925
6.4250002 -1.475 1.975
6.4250002 -1.425 1.975
6.4250002 -1.375 1.825
6.4250002 -1.325 1.825
6.4250002 -1.375 1.875
6.4250002 -1.325 1.875
6.4250002 -1.275 1.825
6.4250002 -1.225 1.825
6.4250002 -1.275 1.875
6.4250002 -1.225 1.875
6.4250002 -1.375 1.925
6.4250002 -1.325 1.925
6.4250002 -1.375 1.975
6.4250002 -1.325 1.975
6.4250002 -1.275 1.925
6.4250002 -1.225 1.925
6.4250002 -1.275 1.975
6.4250002 -1.225 1.975
6.4250002 -1.175 1.625
6.4250002 -1.175 1.675
6.4250002 -1.175 1.725
6.4250002 -1.175 1.775
6.6750002 -1.175 1.625
6.6750002 -1.125 1.625
6.7249999 -1.125 1.625
6.7750001 -1.125 1.625
6.7249999 -1.175 1.675
6.7750001 -1.175 1.675
6.6750002 -1.175 1.725
6.7249999 -1.175 1.725
6.7750001 -1.175 1.725
6.7249999 -1.125 1.725
6.7750001 -1.125 1.775
6.4250002 -1.175 1.825
6.4250002 -1.175 1.875
6.7249999 -1.175 1.875
6.7750001 -1.175 1.875
6.7249999 -1.125 1.875
6.7750001 -1.125 1.875
6.7249999 -1.125 1.925
6.875 -1.125 1.625
6.8249998 -1.175 1.675
6.875 -1.175 1.675
6.8249998 -1.125 1.675
6.9250002 -1.125 1.625
6.9749999 -1.125 1.625
6.9250002 -1.125 1.675
6.875 -1.125 1.725
6.875 -1.175 1.775
6.875 -1.125 1.775
6.9250002 -1.175 1.725
6.9749999 -1.175 1.725
6.9749999 -1.125 1.725
6.9250002 -1.125 1.775
7.0250001 -1.125 1.625
7.0749998 -1.125 1.625
7.0250001 -1.125 1.675
7.1750002 -1.125 1.625
7.125 -1.125 1.675
7.0749998 -1.125 1.725
7.0250001 -1.125 1.775
7.125 -1.175 1.775
7.125 -1.125 1.775
7.1750002 -1.125 1.775
6.8249998 -1.175 1.825
6.8249998 -1.125 1.825
6.875 -1.125 1.825
6.875 -1.125 1.875
6.9250002 -1.125 1.825
6.875 -1.125 1.925
6.9250002 -1.175 1.925
6.9250002 -1.125 1.925
6.9749999 -1.125 1.925
7.0749998 -1.125 1.825
7.0250001 -1.175 1.875
7.0250001 -1.125 1.875
7.125 -1.125 1.825
7.0250001 -1.175 1.975
6.4250002 -1.575 2.0250001
6.4250002 -1.525 2.0250001
6.4250002 -1.575 2.075
6.4250002 -1.525 2.075
6.4250002 -1.475 2.0250001
6.4250002 -1.425 2.0250001
6.4250002 -1.475 2.075
6.4250002 -1.425 2.075
6.4250002 -1.575 2.125
6.4749999 -1.575 2.125
6.4250002 -1.525 2.125
6.4250002 -1.575 2.175
6.4749999 -1.575 2.175
6.4250002 -1.525 2.175
6.4749999 -1.525 2.175
6.4250002 -1.475 2.125
6.4250002 -1.425 2.125
6.4250002 -1.475 2.175
6.4250002 -1.425 2.175
6.4250002 -1.375 2.0250001
6.4250002 -1.325 2.0250001
6.4250002 -1.375 2.075
6.4250002 -1.325 2.075
6.4250002 -1.275 2.0250001
6.4250002 -1.225 2.0250001
6.4250002 -1.275 2.075
6.4250002 -1.225 2.075
6.4250002 -1.375 2.125
6.4250002 -1.325 2.125
6.4250002 -1.375 2.175
6.4250002 -1.325 2.175
6.4250002 -1.275 2.125
6.4250002 -1.225 2.125
6.4250002 -1.275 2.175
6.4250002 -1.225 2.175
6.4749999 -1.225 2.175
6.4250002 -1.575 2.2249999
6.4749999 -1.575 2.2249999
6.4250002 -1.525 2.2249999
6.4749999 -1.575 2.2750001
6.4250002 -1.525 2.2750001
6.4749999 -1.525 2.2750001
6.4250002 -1.475 2.2249999
6.4749999 -1.475 2.2249999
6.4250002 -1.425 2.2249999
6.4250002 -1.475 2.2750001
6.4250002 -1.425 2.2750001
6.4749999 -1.575 2.325
6.4749999 -1.525 2.325
6.4749999 -1.575 2.375
6.4749999 -1.525 2.375
6.4250002 -1.475 2.325
6.4749999 -1.475 2.325
6.4250002 -1.425 2.325
6.4749999 -1.425 2.325
6.4749999 -1.475 2.375
6.4250002 -1.425 2.375
6.4749999 -1.425 2.375
6.4250002 -1.375 2.2249999
6.4250002 -1.325 2.2249999
6.4250002 -1.375 2.2750001
6.4250002 -1.325 2.2750001
6.4250002 -1.275 2.2249999
6.4250002 -1.225 2.2249999
6.4749999 -1.225 2.2249999
6.4250002 -1.275 2.2750001
6.4749999 -1.225 2.2750001
6.4250002 -1.375 2.325
6.4250002 -1.325 2.325
6.4250002 -1.375 2.375
6.4749999 -1.375 2.375
6.4250002 -1.325 2.375
6.4749999 -1.325 2.375
6.4250002 -1.275 2.325
6.4749999 -1.225 2.325
6.4250002 -1.275 2.375
6.4749999 -1.275 2.375
6.4749999 -1.225 2.375
6.4250002 -1.175 2.075
6.4749999 -1.175 2.175
6.7750001 -1.175 2.0250001
6.7249999 -1.175 2.075
6.7750001 -1.175 2.075
6.7750001 -1.125 2.075
6.7249999 -1.175 2.125
6.7249999 -1.125 2.125
6.4749999 -1.175 2.325
6.8249998 -1.175 2.0250001
6.8249998 -1.125 2.0250001
7.2750001 -1.125 1.625
6.4749999 -1.575 2.425
6.4749999 -1.525 2.425
6.4749999 -1.575 2.4749999
6.4749999 -1.525 2.4749999
6.4749999 -1.475 2.425
6.4749999 -1.425 2.425
6.4749999 -1.475 2.4749999
6.4749999 -1.425 2.4749999
6.4749999 -1.575 2.5250001
6.4749999 -1.525 2.5250001
6.4250002 -1.575 2.575
6.4749999 -1.575 2.575
6.4250002 -1.525 2.575
6.4749999 -1.525 2.575
6.4749999 -1.475 2.5250001
6.4749999 -1.425 2.5250001
6.4250002 -1.475 2.575
6.4749999 -1.475 2.575
6.4250002 -1.425 2.575
6.4749999 -1.425 2.575
6.4749999 -1.375 2.425
6.4749999 -1.325 2.425
6.4749999 -1.375 2.4749999
6.4749999 -1.325 2.4749999
6.4250002 -1.275 2.425
6.4749999 -1.275 2.425
6.4749999 -1.225 2.425
6.4749999 -1.275 2.4749999
6.4749999 -1.225 2.4749999
6.4250002 -1.375 2.5250001
6.4749999 -1.375 2.5250001
6.4749999 -1.325 2.5250001
6.4250002 -1.375 2.575
6.4749999 -1.375 2.575
6.4250002 -1.325 2.575
6.4749999 -1.325 2.575
6.4250002 -1.275 2.5250001
6.4749999 -1.275 2.5250001
6.4749999 -1.225 2.5250001
6.4250002 -1.275 2.575
6.4749999 -1.275 2.575
6.4250002 -1.225 2.575
6.4749999 -1.225 2.575
6.4749999 -1.175 2.4749999
6.4250002 -1.175 2.575
6.4250002 -1.125 2.575
6.4250002 -1.075 2.575
6.4749999 -1.075 2.575
6.4250002 -1.025 2.575
6.4749999 -1.025 2.575
6.5250001 -1.075 2.575
6.5749998 -1.075 2.575
6.5250001 -1.025 2.575
6.5749998 -1.025 2.575
6.7249999 -1.175 2.425
6.7750001 -1.125 2.425
6.6750002 -1.075 2.575
6.6750002 -1.025 2.575
