# .PCD v0.7 - Point Cloud Data file format
VERSION 0.7
FIELDS x y z
SIZE 4 4 4
TYPE F F F
COUNT 1 1 1
WIDTH 2018
HEIGHT 1
VIEWPOINT 0 0 0 1 0 0 0
POINTS 2018
DATA ascii
5.875 -0.77499998 2.675
5.8249998 -0.72500002 2.675
5.875 -0.72500002 2.675
5.9250002 -0.77499998 2.675
5.9749999 -0.77499998 2.675
5.9250002 -0.72500002 2.675
5.9749999 -0.72500002 2.675
5.8249998 -0.67500001 2.675
5.875 -0.67500001 2.675
5.8249998 -0.625 2.675
5.875 -0.625 2.675
5.9250002 -0.67500001 2.675
5.9749999 -0.67500001 2.675
5.9749999 -0.77499998 2.7249999
5.9749999 -0.625 2.7249999
5.625 -0.57499999 2.675
5.6750002 -0.57499999 2.675
5.625 -0.52499998 2.675
5.6750002 -0.52499998 2.675
5.7249999 -0.57499999 2.675
5.7750001 -0.57499999 2.675
5.7249999 -0.52499998 2.675
5.7750001 -0.52499998 2.675
5.625 -0.47499999 2.675
5.6750002 -0.47499999 2.675
5.625 -0.42500001 2.675
5.6750002 -0.42500001 2.675
5.7249999 -0.47499999 2.675
5.7750001 -0.47499999 2.675
5.7249999 -0.42500001 2.675
5.7750001 -0.42500001 2.675
5.8249998 -0.57499999 2.675
5.875 -0.57499999 2.675
5.8249998 -0.52499998 2.675
5.875 -0.52499998 2.675
5.9749999 -0.57499999 2.675
5.9749999 -0.52499998 2.675
5.8249998 -0.47499999 2.675
5.875 -0.47499999 2.675
5.8249998 -0.42500001 2.675
5.875 -0.42500001 2.675
5.9749999 -0.47499999 2.675
5.9250002 -0.42500001 2.675
5.9749999 -0.57499999 2.7249999
5.9749999 -0.52499998 2.7249999
5.9250002 -0.47499999 2.7249999
5.9250002 -0.42500001 2.7249999
6.0749998 -0.77499998 2.675
6.0250001 -0.72500002 2.675
6.125 -0.77499998 2.675
6.1750002 -0.77499998 2.675
6.125 -0.72500002 2.675
6.0250001 -0.67500001 2.675
6.0749998 -0.67500001 2.675
6.0250001 -0.625 2.675
6.125 -0.67500001 2.675
6.1750002 -0.67500001 2.675
6.125 -0.625 2.675
6.1750002 -0.625 2.675
6.0749998 -0.77499998 2.7249999
6.0749998 -0.72500002 2.7249999
6.0749998 -0.67500001 2.7249999
6.0749998 -0.625 2.7249999
6.2249999 -0.67500001 2.675
6.2750001 -0.67500001 2.675
6.2249999 -0.625 2.675
6.2750001 -0.625 2.675
6.3249998 -0.67500001 2.675
6.3249998 -0.625 2.675
6.375 -0.625 2.675
6.0250001 -0.57499999 2.675
6.0250001 -0.52499998 2.675
6.125 -0.57499999 2.675
6.1750002 -0.57499999 2.675
6.125 -0.52499998 2.675
6.1750002 -0.52499998 2.675
6.125 -0.47499999 2.675
6.1750002 -0.47499999 2.675
6.125 -0.42500001 2.675
6.1750002 -0.42500001 2.675
6.0749998 -0.57499999 2.7249999
6.0250001 -0.52499998 2.7249999
6.0749998 -0.52499998 2.7249999
6.0250001 -0.47499999 2.7249999
6.0749998 -0.47499999 2.7249999
6.0749998 -0.42500001 2.7249999
6.125 -0.47499999 2.7249999
6.2249999 -0.57499999 2.675
6.3249998 -0.57499999 2.675
6.375 -0.57499999 2.675
6.3249998 -0.52499998 2.675
6.375 -0.52499998 2.675
6.375 -0.47499999 2.675
6.2750001 -0.57499999 2.7249999
5.625 -0.375 2.675
5.6750002 -0.375 2.675
5.625 -0.32499999 2.675
5.6750002 -0.32499999 2.675
5.7249999 -0.375 2.675
5.7750001 -0.375 2.675
5.7249999 -0.32499999 2.675
5.7750001 -0.32499999 2.675
5.625 -0.27500001 2.675
5.6750002 -0.27500001 2.675
5.625 -0.22499999 2.675
5.7249999 -0.27500001 2.675
5.7750001 -0.27500001 2.675
5.7249999 -0.22499999 2.675
5.7750001 -0.22499999 2.675
5.8249998 -0.375 2.675
5.875 -0.375 2.675
5.8249998 -0.32499999 2.675
5.9749999 -0.375 2.675
5.9749999 -0.32499999 2.675
5.8249998 -0.27500001 2.675
5.875 -0.27500001 2.675
5.8249998 -0.22499999 2.675
5.875 -0.22499999 2.675
5.9749999 -0.27500001 2.675
5.9749999 -0.22499999 2.675
5.875 -0.32499999 2.7249999
5.9250002 -0.375 2.7249999
5.9749999 -0.375 2.7249999
5.9749999 -0.32499999 2.7249999
5.875 -0.27500001 2.7249999
5.9250002 -0.27500001 2.7249999
5.9250002 -0.22499999 2.7249999
5.9749999 -0.22499999 2.7249999
5.625 -0.175 2.675
5.625 -0.125 2.675
5.6750002 -0.125 2.675
5.7249999 -0.175 2.675
5.7750001 -0.175 2.675
5.7249999 -0.125 2.675
5.7750001 -0.125 2.675
5.625 -0.075000003 2.675
5.6750002 -0.075000003 2.675
5.625 -0.025 2.675
5.6750002 -0.025 2.675
5.7249999 -0.075000003 2.675
5.7750001 -0.075000003 2.675
5.7249999 -0.025 2.675
5.7750001 -0.025 2.675
5.8249998 -0.175 2.675
5.8249998 -0.125 2.675
5.9749999 -0.175 2.675
5.8249998 -0.075000003 2.675
5.8249998 -0.025 2.675
5.875 -0.175 2.7249999
5.875 -0.125 2.7249999
5.9250002 -0.175 2.7249999
5.9749999 -0.175 2.7249999
5.9250002 -0.125 2.7249999
5.9749999 -0.125 2.7249999
5.875 -0.075000003 2.7249999
5.875 -0.025 2.7249999
5.9250002 -0.075000003 2.7249999
5.9749999 -0.075000003 2.7249999
5.9250002 -0.025 2.7249999
5.9749999 -0.025 2.7249999
6.125 -0.375 2.675
6.1750002 -0.375 2.675
6.125 -0.32499999 2.675
6.1750002 -0.32499999 2.675
6.125 -0.27500001 2.675
6.1750002 -0.27500001 2.675
6.125 -0.22499999 2.675
6.1750002 -0.22499999 2.675
6.0250001 -0.375 2.7249999
6.0749998 -0.375 2.7249999
6.0250001 -0.32499999 2.7249999
6.0749998 -0.32499999 2.7249999
6.1750002 -0.375 2.7249999
6.1750002 -0.32499999 2.7249999
6.0250001 -0.27500001 2.7249999
6.0749998 -0.27500001 2.7249999
6.0250001 -0.22499999 2.7249999
6.0749998 -0.22499999 2.7249999
6.125 -0.22499999 2.7249999
6.1750002 -0.22499999 2.7249999
6.2249999 -0.375 2.675
6.2249999 -0.32499999 2.675
6.375 -0.32499999 2.675
6.2750001 -0.27500001 2.675
6.2750001 -0.22499999 2.675
6.3249998 -0.27500001 2.675
6.375 -0.27500001 2.675
6.3249998 -0.22499999 2.675
6.375 -0.22499999 2.675
6.2750001 -0.32499999 2.7249999
6.2249999 -0.27500001 2.7249999
6.2750001 -0.22499999 2.7249999
6.125 -0.175 2.675
6.1750002 -0.175 2.675
6.125 -0.125 2.675
6.1750002 -0.125 2.675
6.125 -0.075000003 2.675
6.1750002 -0.075000003 2.675
6.125 -0.025 2.675
6.1750002 -0.025 2.675
6.0250001 -0.175 2.7249999
6.0749998 -0.175 2.7249999
6.0250001 -0.125 2.7249999
6.0749998 -0.125 2.7249999
6.125 -0.175 2.7249999
6.1750002 -0.175 2.7249999
6.1750002 -0.125 2.7249999
6.0250001 -0.075000003 2.7249999
6.0749998 -0.075000003 2.7249999
6.0250001 -0.025 2.7249999
6.0749998 -0.025 2.7249999
6.1750002 -0.075000003 2.7249999
6.1750002 -0.025 2.7249999
6.2249999 -0.175 2.675
6.2249999 -0.125 2.675
6.375 -0.175 2.675
6.375 -0.125 2.675
6.2750001 -0.075000003 2.675
6.2750001 -0.025 2.675
6.375 -0.075000003 2.675
6.375 -0.025 2.675
6.375 -0.025 2.7249999
6.4250002 -1.625 1.075
6.4250002 -1.625 1.125
6.4250002 -1.675 1.175
6.4250002 -1.625 1.175
6.4250002 -1.825 1.325
6.4250002 -1.825 1.375
6.4250002 -1.775 1.225
6.4250002 -1.725 1.225
6.4250002 -1.775 1.275
6.4250002 -1.725 1.275
6.4250002 -1.675 1.225
6.4250002 -1.625 1.225
6.4250002 -1.675 1.275
6.4250002 -1.625 1.275
6.4250002 -1.775 1.325
6.4250002 -1.725 1.325
6.4250002 -1.775 1.375
6.4250002 -1.725 1.375
6.4250002 -1.675 1.325
6.4250002 -1.625 1.325
6.4250002 -1.675 1.375
6.4250002 -1.625 1.375
6.4250002 -1.875 1.425
6.4250002 -1.825 1.425
6.4250002 -1.875 1.475
6.4250002 -1.825 1.475
6.4250002 -1.925 1.575
6.4250002 -1.875 1.525
6.4250002 -1.825 1.525
6.4250002 -1.875 1.575
6.4250002 -1.825 1.575
6.4250002 -1.775 1.425
6.4250002 -1.725 1.425
6.4250002 -1.775 1.475
6.4250002 -1.725 1.475
6.4250002 -1.675 1.425
6.4250002 -1.625 1.425
6.4250002 -1.675 1.475
6.4250002 -1.625 1.475
6.4250002 -1.775 1.525
6.4250002 -1.725 1.525
6.4250002 -1.775 1.575
6.4250002 -1.725 1.575
6.4250002 -1.675 1.525
6.4250002 -1.625 1.525
6.4250002 -1.675 1.575
6.4250002 -1.625 1.575
6.4250002 -1.275 0.67500001
6.4250002 -1.225 0.67500001
6.4250002 -1.325 0.72500002
6.4250002 -1.375 0.77499998
6.4250002 -1.325 0.77499998
6.4250002 -1.275 0.72500002
6.4250002 -1.225 0.72500002
6.4250002 -1.275 0.77499998
6.4250002 -1.225 0.77499998
6.4250002 -1.175 0.67500001
6.4250002 -1.175 0.72500002
6.4250002 -1.175 0.77499998
6.4250002 -1.425 0.875
6.4250002 -1.525 0.92500001
6.4250002 -1.575 0.97500002
6.4250002 -1.525 0.97500002
6.4250002 -1.475 0.92500001
6.4250002 -1.425 0.92500001
6.4250002 -1.475 0.97500002
6.4250002 -1.425 0.97500002
6.4250002 -1.375 0.82499999
6.4250002 -1.325 0.82499999
6.4250002 -1.375 0.875
6.4250002 -1.325 0.875
6.4250002 -1.275 0.82499999
6.4250002 -1.225 0.82499999
6.4250002 -1.275 0.875
6.4250002 -1.225 0.875
6.4250002 -1.375 0.92500001
6.4250002 -1.325 0.92500001
6.4250002 -1.375 0.97500002
6.4250002 -1.325 0.97500002
6.4250002 -1.275 0.92500001
6.4250002 -1.225 0.92500001
6.4250002 -1.275 0.97500002
6.4250002 -1.225 0.97500002
6.4250002 -1.575 1.025
6.4250002 -1.525 1.025
6.4250002 -1.575 1.075
6.4250002 -1.525 1.075
6.4250002 -1.475 1.025
6.4250002 -1.425 1.025
6.4250002 -1.475 1.075
6.4250002 -1.425 1.075
6.4250002 -1.575 1.125
6.4250002 -1.525 1.125
6.4250002 -1.575 1.175
6.4250002 -1.525 1.175
6.4250002 -1.475 1.125
6.4250002 -1.425 1.125
6.4250002 -1.475 1.175
6.4250002 -1.425 1.175
6.4250002 -1.375 1.025
6.4250002 -1.325 1.025
6.4250002 -1.375 1.075
6.4250002 -1.325 1.075
6.4250002 -1.275 1.025
6.4250002 -1.225 1.025
6.4250002 -1.275 1.075
6.4250002 -1.225 1.075
6.4250002 -1.375 1.125
6.4250002 -1.325 1.125
6.4250002 -1.375 1.175
6.4250002 -1.325 1.175
6.4250002 -1.275 1.125
6.4250002 -1.225 1.125
6.4250002 -1.275 1.175
6.4250002 -1.225 1.175
6.4250002 -1.175 0.97500002
6.4250002 -1.175 1.025
6.4250002 -1.175 1.075
6.4250002 -1.175 1.175
6.4250002 -1.575 1.225
6.4250002 -1.525 1.225
6.4250002 -1.575 1.275
6.4250002 -1.525 1.275
6.4250002 -1.475 1.225
6.4250002 -1.425 1.225
6.4250002 -1.475 1.275
6.4250002 -1.425 1.275
6.4250002 -1.575 1.325
6.4250002 -1.525 1.325
6.4250002 -1.575 1.375
6.4250002 -1.525 1.375
6.4250002 -1.475 1.325
6.4250002 -1.425 1.325
6.4250002 -1.475 1.375
6.4250002 -1.425 1.375
6.4250002 -1.375 1.225
6.4250002 -1.325 1.225
6.4250002 -1.375 1.275
6.4250002 -1.325 1.275
6.4250002 -1.275 1.225
6.4250002 -1.225 1.225
6.4250002 -1.275 1.275
6.4250002 -1.225 1.275
6.4250002 -1.375 1.325
6.4250002 -1.325 1.325
6.4250002 -1.375 1.375
6.4250002 -1.325 1.375
6.4250002 -1.275 1.325
6.4250002 -1.225 1.325
6.4250002 -1.275 1.375
6.4250002 -1.225 1.375
6.4250002 -1.575 1.425
6.4250002 -1.525 1.425
6.4250002 -1.575 1.475
6.4250002 -1.525 1.475
6.4250002 -1.475 1.425
6.4250002 -1.425 1.425
6.4250002 -1.475 1.475
6.4250002 -1.425 1.475
6.4250002 -1.575 1.525
6.4250002 -1.525 1.525
6.4250002 -1.575 1.575
6.4250002 -1.525 1.575
6.4250002 -1.475 1.525
6.4250002 -1.425 1.525
6.4250002 -1.475 1.575
6.4250002 -1.425 1.575
6.4250002 -1.375 1.425
6.4250002 -1.325 1.425
6.4250002 -1.375 1.475
6.4250002 -1.325 1.475
6.4250002 -1.275 1.425
6.4250002 -1.225 1.425
6.4250002 -1.275 1.475
6.4250002 -1.225 1.475
6.4250002 -1.375 1.525
6.4250002 -1.325 1.525
6.4250002 -1.375 1.575
6.4250002 -1.325 1.575
6.4250002 -1.275 1.525
6.4250002 -1.225 1.525
6.4250002 -1.275 1.575
6.4250002 -1.225 1.575
6.4250002 -1.175 1.325
6.4250002 -1.175 1.375
6.4250002 -1.175 1.425
6.4250002 -1.175 1.475
6.4250002 -2.0250001 1.675
6.4250002 -2.0250001 1.725
6.4250002 -2.0250001 1.775
6.4250002 -2.0250001 1.825
6.4250002 -2.0250001 1.875
6.4250002 -1.975 1.625
6.4250002 -1.925 1.625
6.4250002 -1.925 1.675
6.4250002 -1.875 1.625
6.4250002 -1.825 1.625
6.4250002 -1.875 1.675
6.4250002 -1.825 1.675
6.4250002 -1.975 1.725
6.4250002 -1.925 1.725
6.4250002 -1.975 1.775
6.4250002 -1.925 1.775
6.4250002 -1.875 1.725
6.4250002 -1.825 1.725
6.4250002 -1.875 1.775
6.4250002 -1.825 1.775
6.4250002 -1.775 1.625
6.4250002 -1.725 1.625
6.4250002 -1.775 1.675
6.4250002 -1.725 1.675
6.4250002 -1.675 1.625
6.4250002 -1.625 1.625
6.4250002 -1.675 1.675
6.4250002 -1.625 1.675
6.4250002 -1.775 1.725
6.4250002 -1.725 1.725
6.4250002 -1.775 1.775
6.4250002 -1.725 1.775
6.4250002 -1.675 1.725
6.4250002 -1.625 1.725
6.4250002 -1.675 1.775
6.4250002 -1.625 1.775
6.4250002 -1.975 1.825
6.4250002 -1.925 1.825
6.4250002 -1.975 1.875
6.4250002 -1.925 1.875
6.4250002 -1.875 1.825
6.4250002 -1.825 1.825
6.4250002 -1.875 1.875
6.4250002 -1.825 1.875
6.4250002 -1.975 1.925
6.4250002 -1.925 1.925
6.4250002 -1.975 1.975
6.4250002 -1.925 1.975
6.4250002 -1.875 1.925
6.4250002 -1.825 1.925
6.4250002 -1.875 1.975
6.4250002 -1.825 1.975
6.4250002 -1.775 1.825
6.4250002 -1.725 1.825
6.4250002 -1.775 1.875
6.4250002 -1.725 1.875
6.4250002 -1.675 1.825
6.4250002 -1.625 1.825
6.4250002 -1.675 1.875
6.4250002 -1.625 1.875
6.4250002 -1.775 1.925
6.4250002 -1.725 1.925
6.4250002 -1.775 1.975
6.4250002 -1.725 1.975
6.4250002 -1.675 1.925
6.4250002 -1.625 1.925
6.4250002 -1.675 1.975
6.4250002 -1.625 1.975
6.4250002 -2.075 2.0250001
6.4250002 -2.0250001 2.0250001
6.4250002 -2.075 2.075
6.4250002 -2.0250001 2.075
6.4250002 -2.075 2.125
6.4250002 -2.0250001 2.125
6.4250002 -2.075 2.175
6.4250002 -2.0250001 2.175
6.4250002 -2.075 2.2249999
6.4250002 -2.0250001 2.2249999
6.4250002 -2.075 2.2750001
6.4250002 -2.0250001 2.2750001
6.4250002 -2.075 2.325
6.4250002 -2.0250001 2.325
6.4250002 -2.075 2.375
6.4250002 -2.0250001 2.375
6.4250002 -1.975 2.0250001
6.4250002 -1.925 2.0250001
6.4250002 -1.975 2.075
6.4250002 -1.925 2.075
6.4250002 -1.875 2.0250001
6.4250002 -1.825 2.0250001
6.4250002 -1.875 2.075
6.4250002 -1.825 2.075
6.4250002 -1.975 2.125
6.4250002 -1.925 2.125
6.4250002 -1.975 2.175
6.4250002 -1.925 2.175
6.4250002 -1.875 2.125
6.4250002 -1.825 2.125
6.4250002 -1.875 2.175
6.4250002 -1.825 2.175
6.4250002 -1.775 2.0250001
6.4250002 -1.725 2.0250001
6.4250002 -1.775 2.075
6.4250002 -1.725 2.075
6.4250002 -1.675 2.0250001
6.4250002 -1.625 2.0250001
6.4250002 -1.675 2.075
6.4250002 -1.625 2.075
6.4250002 -1.775 2.125
6.4250002 -1.725 2.125
6.4250002 -1.775 2.175
6.4250002 -1.725 2.175
6.4250002 -1.675 2.125
6.4250002 -1.625 2.125
6.4250002 -1.675 2.175
6.4250002 -1.625 2.175
6.4250002 -1.975 2.2249999
6.4250002 -1.925 2.2249999
6.4250002 -1.975 2.2750001
6.4250002 -1.925 2.2750001
6.4250002 -1.875 2.2249999
6.4250002 -1.825 2.2249999
6.4250002 -1.875 2.2750001
6.4250002 -1.825 2.2750001
6.4250002 -1.975 2.325
6.4250002 -1.925 2.325
6.4250002 -1.975 2.375
6.4250002 -1.925 2.375
6.4250002 -1.875 2.325
6.4250002 -1.825 2.325
6.4250002 -1.875 2.375
6.4250002 -1.825 2.375
6.4250002 -1.775 2.2249999
6.4250002 -1.725 2.2249999
6.4250002 -1.775 2.2750001
6.4250002 -1.725 2.2750001
6.4250002 -1.675 2.2249999
6.4250002 -1.625 2.2249999
6.4250002 -1.675 2.2750001
6.4250002 -1.625 2.2750001
6.4250002 -1.775 2.325
6.4250002 -1.725 2.325
6.4250002 -1.775 2.375
6.4250002 -1.725 2.375
6.4250002 -1.675 2.325
6.4250002 -1.625 2.325
6.4250002 -1.675 2.375
6.4250002 -1.625 2.375
6.4250002 -2.125 2.4749999
6.4250002 -2.075 2.425
6.4250002 -2.0250001 2.425
6.4250002 -2.075 2.4749999
6.4250002 -2.0250001 2.4749999
6.4250002 -2.125 2.5250001
6.4250002 -2.125 2.575
6.4250002 -2.075 2.5250001
6.4250002 -2.0250001 2.5250001
6.4250002 -2.075 2.575
6.4250002 -2.0250001 2.575
6.4250002 -2.125 2.675
6.4250002 -2.075 2.625
6.4250002 -2.0250001 2.625
6.4250002 -2.075 2.675
6.4250002 -2.0250001 2.675
6.4250002 -1.975 2.425
6.4250002 -1.925 2.425
6.4250002 -1.975 2.4749999
6.4250002 -1.925 2.4749999
6.4250002 -1.875 2.425
6.4250002 -1.825 2.425
6.4250002 -1.875 2.4749999
6.4250002 -1.825 2.4749999
6.4250002 -1.975 2.5250001
6.4250002 -1.925 2.5250001
6.4250002 -1.975 2.575
6.4250002 -1.925 2.575
6.4250002 -1.875 2.5250001
6.4250002 -1.825 2.5250001
6.4250002 -1.875 2.575
6.4250002 -1.825 2.575
6.4250002 -1.775 2.425
6.4250002 -1.725 2.425
6.4250002 -1.775 2.4749999
6.4250002 -1.725 2.4749999
6.4250002 -1.675 2.425
6.4250002 -1.625 2.425
6.4250002 -1.675 2.4749999
6.4250002 -1.625 2.4749999
6.4250002 -1.775 2.5250001
6.4250002 -1.725 2.5250001
6.4250002 -1.775 2.575
6.4250002 -1.725 2.575
6.4250002 -1.675 2.5250001
6.4250002 -1.625 2.5250001
6.4250002 -1.675 2.575
6.4250002 -1.625 2.575
6.4250002 -1.975 2.625
6.4250002 -1.925 2.625
6.4250002 -1.975 2.675
6.4250002 -1.925 2.675
6.4250002 -1.875 2.625
6.4250002 -1.825 2.625
6.4250002 -1.875 2.675
6.4250002 -1.775 2.625
6.4250002 -1.725 2.625
6.4250002 -1.675 2.625
6.4250002 -1.625 2.625
6.4250002 -1.675 2.675
6.4250002 -1.625 2.675
6.4250002 -1.575 1.625
6.4250002 -1.525 1.625
6.4250002 -1.575 1.675
6.4250002 -1.525 1.675
6.4250002 -1.475 1.625
6.4250002 -1.425 1.625
6.4250002 -1.475 1.675
6.4250002 -1.425 1.675
6.4250002 -1.575 1.725
6.4250002 -1.525 1.725
6.4250002 -1.575 1.775
6.4250002 -1.525 1.775
6.4250002 -1.475 1.725
6.4250002 -1.425 1.725
6.4250002 -1.475 1.775
6.4250002 -1.425 1.775
6.4250002 -1.375 1.625
6.4250002 -1.325 1.625
6.4250002 -1.375 1.675
6.4250002 -1.325 1.675
6.4250002 -1.275 1.625
6.4250002 -1.225 1.625
6.4250002 -1.275 1.675
6.4250002 -1.225 1.675
6.4250002 -1.375 1.725
6.4250002 -1.325 1.725
6.4250002 -1.375 1.775
6.4250002 -1.325 1.775
6.4250002 -1.275 1.725
6.4250002 -1.225 1.725
6.4250002 -1.275 1.775
6.4250002 -1.225 1.775
6.4250002 -1.575 1.825
6.4250002 -1.525 1.825
6.4250002 -1.575 1.875
6.4250002 -1.525 1.875
6.4250002 -1.475 1.825
6.4250002 -1.425 1.825
6.4250002 -1.475 1.875
6.4250002 -1.425 1.875
6.4250002 -1.575 1.925
6.4250002 -1.525 1.925
6.4250002 -1.575 1.975
6.4250002 -1.525 1.975
6.4250002 -1.475 1.925
6.4250002 -1.425 1.925
6.4250002 -1.475 1.975
6.4250002 -1.425 1.975
6.4250002 -1.375 1.825
6.4250002 -1.325 1.825
6.4250002 -1.375 1.875
6.4250002 -1.325 1.875
6.4250002 -1.275 1.825
6.4250002 -1.225 1.825
6.4250002 -1.275 1.875
6.4250002 -1.225 1.875
6.4250002 -1.375 1.925
6.4250002 -1.325 1.925
6.4250002 -1.375 1.975
6.4250002 -1.325 1.975
6.4250002 -1.275 1.925
6.4250002 -1.225 1.925
6.4250002 -1.275 1.975
6.4250002 -1.225 1.975
6.4250002 -1.175 1.875
6.4250002 -1.175 1.925
6.4250002 -1.175 1.975
6.4250002 -1.575 2.0250001
6.4250002 -1.525 2.0250001
6.4250002 -1.575 2.075
6.4250002 -1.525 2.075
6.4250002 -1.475 2.0250001
6.4250002 -1.425 2.0250001
6.4250002 -1.475 2.075
6.4250002 -1.425 2.075
6.4250002 -1.575 2.125
6.4250002 -1.525 2.125
6.4250002 -1.575 2.175
6.4250002 -1.525 2.175
6.4250002 -1.475 2.125
6.4250002 -1.425 2.125
6.4250002 -1.475 2.175
6.4250002 -1.425 2.175
6.4250002 -1.375 2.0250001
6.4250002 -1.325 2.0250001
6.4250002 -1.375 2.075
6.4250002 -1.325 2.075
6.4250002 -1.275 2.0250001
6.4250002 -1.225 2.0250001
6.4250002 -1.275 2.075
6.4250002 -1.225 2.075
6.4250002 -1.375 2.125
6.4250002 -1.325 2.125
6.4250002 -1.375 2.175
6.4250002 -1.325 2.175
6.4250002 -1.275 2.125
6.4250002 -1.225 2.125
6.4250002 -1.275 2.175
6.4250002 -1.225 2.175
6.4250002 -1.575 2.2249999
6.4250002 -1.525 2.2249999
6.4250002 -1.575 2.2750001
6.4250002 -1.525 2.2750001
6.4250002 -1.475 2.2249999
6.4250002 -1.425 2.2249999
6.4250002 -1.475 2.2750001
6.4250002 -1.425 2.2750001
6.4250002 -1.575 2.325
6.4250002 -1.525 2.325
6.4250002 -1.575 2.375
6.4250002 -1.525 2.375
6.4250002 -1.475 2.325
6.4250002 -1.425 2.325
6.4250002 -1.475 2.375
6.4250002 -1.425 2.375
6.4250002 -1.375 2.2249999
6.4250002 -1.325 2.2249999
6.4250002 -1.375 2.2750001
6.4250002 -1.325 2.2750001
6.4250002 -1.275 2.2249999
6.4250002 -1.225 2.2249999
6.4250002 -1.275 2.2750001
6.4250002 -1.225 2.2750001
6.4250002 -1.375 2.325
6.4250002 -1.325 2.325
6.4250002 -1.375 2.375
6.4250002 -1.325 2.375
6.4250002 -1.275 2.325
6.4250002 -1.225 2.325
6.4250002 -1.275 2.375
6.4250002 -1.225 2.375
6.4250002 -1.575 2.425
6.4250002 -1.525 2.425
6.4250002 -1.575 2.4749999
6.4250002 -1.525 2.4749999
6.4250002 -1.475 2.425
6.4250002 -1.425 2.425
6.4250002 -1.475 2.4749999
6.4250002 -1.425 2.4749999
6.4250002 -1.575 2.5250001
6.4250002 -1.525 2.5250001
6.4250002 -1.575 2.575
6.4250002 -1.525 2.575
6.4250002 -1.475 2.5250001
6.4250002 -1.425 2.5250001
6.4250002 -1.475 2.575
6.4250002 -1.425 2.575
6.4250002 -1.375 2.425
6.4250002 -1.325 2.425
6.4250002 -1.375 2.4749999
6.4250002 -1.325 2.4749999
6.4250002 -1.275 2.425
6.4250002 -1.225 2.425
6.4250002 -1.275 2.4749999
6.4250002 -1.225 2.4749999
6.4250002 -1.375 2.5250001
6.4250002 -1.325 2.5250001
6.4250002 -1.375 2.575
6.4250002 -1.325 2.575
6.4250002 -1.275 2.5250001
6.4250002 -1.225 2.5250001
6.4250002 -1.275 2.575
6.4250002 -1.225 2.575
6.4250002 -1.575 2.625
6.4250002 -1.525 2.625
6.4250002 -1.575 2.675
6.4250002 -1.525 2.675
6.4250002 -1.475 2.625
6.4250002 -1.425 2.625
6.4250002 -1.475 2.675
6.4250002 -1.425 2.675
6.4250002 -1.375 2.625
6.4250002 -1.325 2.625
6.4250002 -1.375 2.675
6.4250002 -1.275 2.625
6.4250002 -1.225 2.625
6.4250002 -1.275 2.675
6.4250002 -1.225 2.675
6.625 -0.67500001 2.675
6.625 -0.625 2.675
6.4250002 -0.57499999 2.675
6.4250002 -0.52499998 2.675
6.4250002 -0.47499999 2.675
6.625 -0.57499999 2.675
-0.025 1.225 0.175
-0.125 1.225 0.27500001
-0.075000003 1.225 0.22499999
-0.025 1.225 0.22499999
-0.075000003 1.225 0.27500001
-0.025 1.225 0.27500001
-0.125 1.225 0.32499999
-0.075000003 1.225 0.32499999
-0.025 1.225 0.32499999
0.22499999 0.025 0.025
0.27500001 0.025 0.025
0.22499999 0.075000003 0.025
0.32499999 0.025 0.025
0.375 0.025 0.025
0.32499999 0.075000003 0.025
0.375 0.075000003 0.025
0.27500001 0.125 0.025
0.32499999 0.125 0.025
0.375 0.125 0.025
0.32499999 0.175 0.025
0.375 0.175 0.025
0.22499999 0.27500001 0.025
0.27500001 0.27500001 0.025
0.32499999 0.22499999 0.025
0.375 0.22499999 0.025
0.32499999 0.27500001 0.025
0.375 0.27500001 0.025
0.22499999 0.32499999 0.025
0.27500001 0.32499999 0.025
0.27500001 0.375 0.025
0.32499999 0.32499999 0.025
0.375 0.32499999 0.025
0.32499999 0.375 0.025
0.375 0.375 0.025
0.42500001 0.025 0.025
0.47499999 0.025 0.025
0.42500001 0.075000003 0.025
0.47499999 0.075000003 0.025
0.52499998 0.025 0.025
0.57499999 0.025 0.025
0.52499998 0.075000003 0.025
0.57499999 0.075000003 0.025
0.42500001 0.125 0.025
0.47499999 0.125 0.025
0.42500001 0.175 0.025
0.47499999 0.175 0.025
0.52499998 0.125 0.025
0.57499999 0.125 0.025
0.52499998 0.175 0.025
0.57499999 0.175 0.025
0.625 0.025 0.025
0.67500001 0.025 0.025
0.625 0.075000003 0.025
0.67500001 0.075000003 0.025
0.72500002 0.025 0.025
0.77499998 0.025 0.025
0.72500002 0.075000003 0.025
0.77499998 0.075000003 0.025
0.625 0.125 0.025
0.67500001 0.125 0.025
0.625 0.175 0.025
0.67500001 0.175 0.025
0.72500002 0.125 0.025
0.77499998 0.125 0.025
0.72500002 0.175 0.025
0.77499998 0.175 0.025
0.42500001 0.22499999 0.025
0.47499999 0.22499999 0.025
0.42500001 0.27500001 0.025
0.47499999 0.27500001 0.025
0.52499998 0.22499999 0.025
0.57499999 0.22499999 0.025
0.52499998 0.27500001 0.025
0.57499999 0.27500001 0.025
0.42500001 0.32499999 0.025
0.47499999 0.32499999 0.025
0.42500001 0.375 0.025
0.47499999 0.375 0.025
0.52499998 0.32499999 0.025
0.57499999 0.32499999 0.025
0.52499998 0.375 0.025
0.57499999 0.375 0.025
0.625 0.22499999 0.025
0.67500001 0.22499999 0.025
0.625 0.27500001 0.025
0.67500001 0.27500001 0.025
0.72500002 0.22499999 0.025
0.77499998 0.22499999 0.025
0.72500002 0.27500001 0.025
0.77499998 0.27500001 0.025
0.625 0.32499999 0.025
0.67500001 0.32499999 0.025
0.625 0.375 0.025
0.67500001 0.375 0.025
0.72500002 0.32499999 0.025
0.77499998 0.32499999 0.025
0.72500002 0.375 0.025
0.77499998 0.375 0.025
0.27500001 0.42500001 0.025
0.27500001 0.47499999 0.025
0.32499999 0.42500001 0.025
0.375 0.42500001 0.025
0.32499999 0.47499999 0.025
0.375 0.47499999 0.025
0.32499999 0.52499998 0.025
0.375 0.52499998 0.025
0.32499999 0.57499999 0.025
0.375 0.57499999 0.025
0.32499999 0.625 0.025
0.375 0.625 0.025
0.32499999 0.67500001 0.025
0.375 0.67500001 0.025
0.375 0.72500002 0.025
0.42500001 0.42500001 0.025
0.47499999 0.42500001 0.025
0.42500001 0.47499999 0.025
0.47499999 0.47499999 0.025
0.52499998 0.42500001 0.025
0.57499999 0.42500001 0.025
0.52499998 0.47499999 0.025
0.57499999 0.47499999 0.025
0.42500001 0.52499998 0.025
0.47499999 0.52499998 0.025
0.42500001 0.57499999 0.025
0.47499999 0.57499999 0.025
0.52499998 0.52499998 0.025
0.57499999 0.52499998 0.025
0.52499998 0.57499999 0.025
0.57499999 0.57499999 0.025
0.625 0.42500001 0.025
0.67500001 0.42500001 0.025
0.625 0.47499999 0.025
0.67500001 0.47499999 0.025
0.72500002 0.42500001 0.025
0.77499998 0.42500001 0.025
0.72500002 0.47499999 0.025
0.77499998 0.47499999 0.025
0.625 0.52499998 0.025
0.67500001 0.52499998 0.025
0.625 0.57499999 0.025
0.67500001 0.57499999 0.025
0.72500002 0.52499998 0.025
0.77499998 0.52499998 0.025
0.72500002 0.57499999 0.025
0.77499998 0.57499999 0.025
0.42500001 0.625 0.025
0.47499999 0.625 0.025
0.42500001 0.67500001 0.025
0.47499999 0.67500001 0.025
0.52499998 0.625 0.025
0.57499999 0.625 0.025
0.52499998 0.67500001 0.025
0.57499999 0.67500001 0.025
0.42500001 0.72500002 0.025
0.47499999 0.72500002 0.025
0.47499999 0.77499998 0.025
0.52499998 0.72500002 0.025
0.52499998 0.77499998 0.025
0.625 0.625 0.025
0.67500001 0.625 0.025
0.625 0.67500001 0.025
0.67500001 0.67500001 0.025
0.72500002 0.625 0.025
0.77499998 0.625 0.025
0.72500002 0.67500001 0.025
0.77499998 0.67500001 0.025
0.72500002 0.72500002 0.025
0.82499999 0.025 0.025
0.82499999 0.075000003 0.025
0.875 0.075000003 0.025
0.92500001 0.025 0.025
0.92500001 0.075000003 0.025
0.82499999 0.125 0.025
0.875 0.125 0.025
0.82499999 0.175 0.025
0.875 0.175 0.025
0.92500001 0.125 0.025
0.97500002 0.125 0.025
0.92500001 0.175 0.025
0.97500002 0.175 0.025
1.025 0.025 0.025
1.025 0.075000003 0.025
1.075 0.075000003 0.025
1.125 0.025 0.025
1.175 0.025 0.025
1.125 0.075000003 0.025
1.025 0.125 0.025
1.025 0.175 0.025
1.125 0.125 0.025
1.175 0.125 0.025
1.125 0.175 0.025
1.175 0.175 0.025
0.82499999 0.22499999 0.025
0.875 0.22499999 0.025
0.82499999 0.27500001 0.025
0.875 0.27500001 0.025
0.92500001 0.22499999 0.025
0.92500001 0.27500001 0.025
0.97500002 0.27500001 0.025
0.82499999 0.32499999 0.025
0.875 0.32499999 0.025
0.82499999 0.375 0.025
0.875 0.375 0.025
0.92500001 0.32499999 0.025
0.92500001 0.375 0.025
1.025 0.22499999 0.025
1.075 0.22499999 0.025
1.025 0.27500001 0.025
1.075 0.27500001 0.025
1.125 0.22499999 0.025
1.125 0.27500001 0.025
1.025 0.32499999 0.025
1.025 0.375 0.025
1.075 0.375 0.025
1.175 0.32499999 0.025
1.175 0.375 0.025
1.275 0.025 0.025
1.275 0.075000003 0.025
1.325 0.025 0.025
1.275 0.125 0.025
1.225 0.175 0.025
1.275 0.175 0.025
1.425 0.025 0.025
1.425 0.075000003 0.025
1.525 0.025 0.025
1.525 0.075000003 0.025
1.475 0.125 0.025
1.425 0.175 0.025
1.275 0.22499999 0.025
1.275 0.27500001 0.025
1.225 0.32499999 0.025
1.275 0.32499999 0.025
1.225 0.375 0.025
1.275 0.375 0.025
1.325 0.375 0.025
1.375 0.375 0.025
1.475 0.375 0.025
1.525 0.32499999 0.025
1.525 0.375 0.025
0.82499999 0.42500001 0.025
0.875 0.42500001 0.025
0.82499999 0.47499999 0.025
0.875 0.47499999 0.025
0.92500001 0.42500001 0.025
0.97500002 0.42500001 0.025
0.92500001 0.47499999 0.025
0.97500002 0.47499999 0.025
0.82499999 0.52499998 0.025
0.875 0.52499998 0.025
0.82499999 0.57499999 0.025
0.875 0.57499999 0.025
0.92500001 0.52499998 0.025
0.97500002 0.52499998 0.025
0.92500001 0.57499999 0.025
1.025 0.42500001 0.025
1.075 0.42500001 0.025
1.025 0.47499999 0.025
1.075 0.47499999 0.025
1.125 0.42500001 0.025
1.175 0.42500001 0.025
1.125 0.47499999 0.025
1.175 0.47499999 0.025
1.075 0.52499998 0.025
1.075 0.57499999 0.025
1.125 0.52499998 0.025
1.175 0.52499998 0.025
1.125 0.57499999 0.025
1.175 0.57499999 0.025
0.82499999 0.625 0.025
0.875 0.625 0.025
0.82499999 0.67500001 0.025
0.92500001 0.625 0.025
0.97500002 0.625 0.025
0.92500001 0.67500001 0.025
0.97500002 0.67500001 0.025
0.82499999 0.72500002 0.025
0.875 0.72500002 0.025
0.92500001 0.72500002 0.025
0.97500002 0.72500002 0.025
0.92500001 0.77499998 0.025
0.97500002 0.77499998 0.025
1.075 0.625 0.025
1.125 0.625 0.025
1.175 0.625 0.025
1.125 0.67500001 0.025
1.175 0.67500001 0.025
1.075 0.77499998 0.025
1.225 0.42500001 0.025
1.275 0.47499999 0.025
1.375 0.57499999 0.025
1.475 0.57499999 0.025
1.225 0.67500001 0.025
1.275 0.67500001 0.025
0.375 1.125 0.025
0.32499999 1.175 0.025
0.375 1.175 0.025
0.47499999 0.82499999 0.025
0.47499999 0.875 0.025
0.52499998 0.82499999 0.025
0.42500001 0.97500002 0.025
0.52499998 0.97500002 0.025
0.42500001 1.075 0.025
0.52499998 1.025 0.025
0.57499999 1.025 0.025
0.42500001 1.125 0.025
0.42500001 1.175 0.025
0.47499999 1.175 0.025
0.52499998 1.125 0.025
0.57499999 1.125 0.025
0.52499998 1.175 0.025
0.57499999 1.175 0.025
0.67500001 1.025 0.025
0.77499998 1.075 0.025
0.67500001 1.125 0.025
0.625 1.175 0.025
0.67500001 1.175 0.025
0.72500002 1.125 0.025
0.77499998 1.125 0.025
0.72500002 1.175 0.025
0.77499998 1.175 0.025
0.075000003 1.275 0.075000003
0.175 1.225 0.025
0.175 1.275 0.025
0.125 1.275 0.075000003
0.175 1.275 0.075000003
0.025 1.225 0.125
0.075000003 1.225 0.125
0.075000003 1.275 0.125
0.025 1.225 0.175
0.075000003 1.225 0.175
0.125 1.225 0.125
0.175 1.225 0.125
0.125 1.275 0.125
0.175 1.275 0.125
0.125 1.225 0.175
0.175 1.225 0.175
0.22499999 1.225 0.025
0.27500001 1.225 0.025
0.22499999 1.275 0.025
0.27500001 1.275 0.025
0.22499999 1.275 0.075000003
0.27500001 1.275 0.075000003
0.32499999 1.225 0.025
0.375 1.225 0.025
0.32499999 1.275 0.025
0.375 1.275 0.025
0.32499999 1.275 0.075000003
0.375 1.275 0.075000003
0.22499999 1.225 0.125
0.27500001 1.225 0.125
0.22499999 1.275 0.125
0.27500001 1.275 0.125
0.22499999 1.225 0.175
0.27500001 1.225 0.175
0.32499999 1.225 0.125
0.375 1.225 0.125
0.375 1.275 0.125
0.32499999 1.225 0.175
0.375 1.225 0.175
0.025 1.225 0.22499999
0.075000003 1.225 0.22499999
0.025 1.225 0.27500001
0.075000003 1.225 0.27500001
0.125 1.225 0.22499999
0.175 1.225 0.22499999
0.125 1.225 0.27500001
0.175 1.225 0.27500001
0.025 1.225 0.32499999
0.075000003 1.225 0.32499999
0.125 1.225 0.32499999
0.175 1.225 0.32499999
0.22499999 1.225 0.22499999
0.27500001 1.225 0.22499999
0.22499999 1.225 0.27500001
0.27500001 1.225 0.27500001
0.32499999 1.225 0.22499999
0.375 1.225 0.22499999
0.32499999 1.225 0.27500001
0.375 1.225 0.27500001
0.22499999 1.225 0.32499999
0.27500001 1.225 0.32499999
0.32499999 1.225 0.32499999
0.375 1.225 0.32499999
0.42500001 1.225 0.025
0.47499999 1.225 0.025
0.47499999 1.275 0.075000003
0.52499998 1.225 0.025
0.57499999 1.225 0.025
0.57499999 1.275 0.025
0.42500001 1.225 0.125
0.47499999 1.225 0.125
0.42500001 1.275 0.125
0.47499999 1.275 0.125
0.42500001 1.225 0.175
0.47499999 1.225 0.175
0.52499998 1.225 0.125
0.57499999 1.225 0.125
0.52499998 1.275 0.125
0.57499999 1.275 0.125
0.52499998 1.225 0.175
0.57499999 1.225 0.175
0.625 1.225 0.025
0.67500001 1.225 0.025
0.625 1.275 0.025
0.67500001 1.275 0.075000003
0.72500002 1.225 0.025
0.77499998 1.225 0.025
0.72500002 1.275 0.025
0.72500002 1.275 0.075000003
0.625 1.225 0.125
0.67500001 1.225 0.125
0.625 1.275 0.125
0.67500001 1.275 0.125
0.625 1.225 0.175
0.67500001 1.225 0.175
0.72500002 1.225 0.125
0.77499998 1.225 0.125
0.72500002 1.275 0.125
0.77499998 1.275 0.125
0.72500002 1.225 0.175
0.77499998 1.225 0.175
0.42500001 1.225 0.22499999
0.47499999 1.225 0.22499999
0.42500001 1.225 0.27500001
0.47499999 1.225 0.27500001
0.52499998 1.225 0.22499999
0.57499999 1.225 0.22499999
0.52499998 1.225 0.27500001
0.57499999 1.225 0.27500001
0.42500001 1.225 0.32499999
0.47499999 1.225 0.32499999
0.52499998 1.225 0.32499999
0.57499999 1.225 0.32499999
0.625 1.225 0.22499999
0.67500001 1.225 0.22499999
0.625 1.225 0.27500001
0.67500001 1.225 0.27500001
0.72500002 1.225 0.22499999
0.77499998 1.225 0.22499999
0.72500002 1.225 0.27500001
0.77499998 1.225 0.27500001
0.625 1.225 0.32499999
0.67500001 1.225 0.32499999
0.72500002 1.225 0.32499999
0.77499998 1.225 0.32499999
1.025 0.82499999 0.025
1.075 0.82499999 0.025
1.125 0.82499999 0.025
1.175 0.82499999 0.025
1.125 0.875 0.025
1.175 0.875 0.025
0.875 1.025 0.025
0.97500002 1.025 0.025
0.92500001 1.075 0.025
0.82499999 1.175 0.025
0.875 1.175 0.025
0.92500001 1.125 0.025
0.97500002 1.125 0.025
0.92500001 1.175 0.025
0.97500002 1.175 0.025
1.075 1.075 0.025
1.075 1.125 0.025
1.025 1.175 0.025
1.075 1.175 0.025
1.125 1.175 0.025
1.175 1.175 0.025
1.225 1.025 0.025
1.375 1.075 0.025
1.275 1.125 0.025
1.225 1.175 0.025
1.275 1.175 0.025
1.325 1.175 0.025
1.425 1.125 0.025
1.475 1.125 0.025
1.425 1.175 0.025
0.82499999 1.225 0.025
0.875 1.225 0.025
0.82499999 1.275 0.025
0.875 1.275 0.025
0.92500001 1.225 0.025
0.97500002 1.225 0.025
0.92500001 1.275 0.025
0.97500002 1.275 0.025
0.97500002 1.275 0.075000003
0.82499999 1.225 0.125
0.875 1.225 0.125
0.82499999 1.275 0.125
0.82499999 1.225 0.175
0.875 1.225 0.175
0.92500001 1.225 0.125
0.97500002 1.225 0.125
0.92500001 1.275 0.125
0.92500001 1.225 0.175
0.97500002 1.225 0.175
1.025 1.225 0.025
1.075 1.225 0.025
1.025 1.275 0.025
1.075 1.275 0.025
1.125 1.225 0.025
1.175 1.225 0.025
1.125 1.275 0.025
1.175 1.275 0.025
1.025 1.225 0.125
1.075 1.225 0.125
1.025 1.225 0.175
1.075 1.225 0.175
1.125 1.225 0.125
1.175 1.225 0.125
1.125 1.225 0.175
1.175 1.225 0.175
0.82499999 1.225 0.22499999
0.875 1.225 0.22499999
0.82499999 1.225 0.27500001
0.875 1.225 0.27500001
0.92500001 1.225 0.22499999
0.97500002 1.225 0.22499999
0.92500001 1.225 0.27500001
0.97500002 1.225 0.27500001
0.82499999 1.225 0.32499999
0.875 1.225 0.32499999
0.92500001 1.225 0.32499999
0.97500002 1.225 0.32499999
1.025 1.225 0.22499999
1.075 1.225 0.22499999
1.025 1.225 0.27500001
1.075 1.225 0.27500001
1.125 1.225 0.22499999
1.175 1.225 0.22499999
1.125 1.225 0.27500001
1.175 1.225 0.27500001
1.025 1.225 0.32499999
1.075 1.225 0.32499999
1.125 1.225 0.32499999
1.175 1.225 0.32499999
1.175 1.275 0.32499999
1.225 1.225 0.025
1.275 1.225 0.025
1.225 1.275 0.025
1.275 1.275 0.025
1.275 1.275 0.075000003
1.325 1.225 0.025
1.325 1.275 0.025
1.375 1.275 0.025
1.275 1.325 0.075000003
1.225 1.225 0.125
1.275 1.225 0.125
1.225 1.225 0.175
1.275 1.225 0.175
1.325 1.225 0.125
1.375 1.225 0.125
1.325 1.275 0.125
1.375 1.275 0.125
1.325 1.225 0.175
1.375 1.225 0.175
1.425 1.225 0.025
1.425 1.275 0.025
1.425 1.275 0.075000003
1.575 1.275 0.075000003
1.425 1.225 0.125
1.475 1.225 0.125
1.425 1.275 0.125
1.425 1.225 0.175
1.475 1.225 0.175
1.525 1.225 0.125
1.575 1.225 0.125
1.525 1.225 0.175
1.575 1.225 0.175
1.225 1.225 0.22499999
1.275 1.225 0.22499999
1.225 1.225 0.27500001
1.275 1.225 0.27500001
1.325 1.225 0.22499999
1.375 1.225 0.22499999
1.325 1.225 0.27500001
1.375 1.225 0.27500001
1.225 1.225 0.32499999
1.275 1.225 0.32499999
1.225 1.275 0.32499999
1.275 1.275 0.32499999
1.325 1.225 0.32499999
1.375 1.225 0.32499999
1.325 1.275 0.32499999
1.375 1.275 0.32499999
1.375 1.225 0.375
1.375 1.275 0.375
1.425 1.225 0.22499999
1.475 1.225 0.22499999
1.425 1.225 0.27500001
1.475 1.225 0.27500001
1.525 1.225 0.22499999
1.575 1.225 0.22499999
1.525 1.225 0.27500001
1.575 1.225 0.27500001
1.425 1.225 0.32499999
1.475 1.225 0.32499999
1.425 1.275 0.32499999
1.475 1.275 0.32499999
1.425 1.225 0.375
1.475 1.225 0.375
1.425 1.275 0.375
1.475 1.275 0.375
1.525 1.225 0.32499999
1.575 1.225 0.32499999
1.525 1.275 0.32499999
1.575 1.275 0.32499999
1.525 1.225 0.375
1.575 1.225 0.375
1.525 1.275 0.375
1.575 1.275 0.375
1.625 1.225 0.125
1.675 1.225 0.125
1.625 1.225 0.175
1.675 1.225 0.175
1.725 1.225 0.125
1.775 1.225 0.125
1.725 1.225 0.175
1.775 1.225 0.175
1.825 1.225 0.125
1.875 1.225 0.125
1.825 1.225 0.175
1.875 1.225 0.175
1.925 1.225 0.125
1.975 1.225 0.125
1.925 1.225 0.175
1.975 1.225 0.175
1.625 1.225 0.22499999
1.675 1.225 0.22499999
1.625 1.225 0.27500001
1.675 1.225 0.27500001
1.725 1.225 0.22499999
1.775 1.225 0.22499999
1.725 1.225 0.27500001
1.775 1.225 0.27500001
1.625 1.225 0.32499999
1.675 1.225 0.32499999
1.625 1.275 0.32499999
1.675 1.275 0.32499999
1.625 1.225 0.375
1.675 1.225 0.375
1.625 1.275 0.375
1.675 1.275 0.375
1.725 1.225 0.32499999
1.775 1.225 0.32499999
1.725 1.225 0.375
1.775 1.225 0.375
1.725 1.275 0.375
1.775 1.275 0.375
1.825 1.225 0.22499999
1.875 1.225 0.22499999
1.825 1.225 0.27500001
1.875 1.225 0.27500001
1.925 1.225 0.22499999
1.975 1.225 0.22499999
1.925 1.225 0.27500001
1.975 1.225 0.27500001
1.825 1.225 0.32499999
1.875 1.225 0.32499999
1.825 1.275 0.32499999
1.875 1.275 0.32499999
1.825 1.225 0.375
1.875 1.225 0.375
1.825 1.275 0.375
1.875 1.275 0.375
1.925 1.225 0.32499999
1.975 1.225 0.32499999
1.925 1.225 0.375
1.975 1.225 0.375
1.925 1.275 0.375
1.975 1.275 0.375
2.0250001 1.225 0.125
2.075 1.225 0.125
2.0250001 1.275 0.125
2.0250001 1.225 0.175
2.075 1.225 0.175
2.075 1.275 0.175
2.125 1.225 0.125
2.175 1.225 0.125
2.125 1.275 0.125
2.175 1.275 0.125
2.125 1.225 0.175
2.175 1.225 0.175
2.125 1.275 0.175
2.175 1.275 0.175
2.325 1.275 0.075000003
2.2249999 1.225 0.125
2.2750001 1.225 0.125
2.2249999 1.275 0.125
2.2750001 1.275 0.125
2.2249999 1.225 0.175
2.2750001 1.225 0.175
2.2249999 1.275 0.175
2.2750001 1.275 0.175
2.375 1.225 0.125
2.325 1.275 0.125
2.375 1.275 0.125
2.325 1.225 0.175
2.325 1.275 0.175
2.375 1.275 0.175
2.0250001 1.225 0.22499999
2.075 1.225 0.22499999
2.0250001 1.225 0.27500001
2.075 1.225 0.27500001
2.125 1.225 0.22499999
2.175 1.225 0.22499999
2.125 1.275 0.22499999
2.175 1.275 0.22499999
2.125 1.225 0.27500001
2.175 1.225 0.27500001
2.175 1.275 0.27500001
2.0250001 1.225 0.32499999
2.075 1.225 0.32499999
2.0250001 1.275 0.32499999
2.0250001 1.225 0.375
2.075 1.225 0.375
2.0250001 1.275 0.375
2.075 1.275 0.375
2.125 1.225 0.32499999
2.175 1.225 0.32499999
2.125 1.275 0.32499999
2.175 1.275 0.32499999
2.125 1.225 0.375
2.175 1.225 0.375
2.125 1.275 0.375
2.175 1.275 0.375
2.2249999 1.225 0.22499999
2.2750001 1.225 0.22499999
2.2249999 1.275 0.22499999
2.2750001 1.275 0.22499999
2.2249999 1.225 0.27500001
2.2750001 1.225 0.27500001
2.2249999 1.275 0.27500001
2.2750001 1.275 0.27500001
2.325 1.275 0.22499999
2.375 1.275 0.22499999
2.325 1.225 0.27500001
2.375 1.225 0.27500001
2.325 1.275 0.27500001
2.375 1.275 0.27500001
2.2249999 1.225 0.32499999
2.2750001 1.225 0.32499999
2.2249999 1.275 0.32499999
2.2750001 1.275 0.32499999
2.2249999 1.225 0.375
2.2750001 1.225 0.375
2.2249999 1.275 0.375
2.2750001 1.275 0.375
2.325 1.225 0.32499999
2.375 1.225 0.32499999
2.325 1.275 0.32499999
2.375 1.275 0.32499999
2.325 1.225 0.375
2.375 1.225 0.375
2.325 1.275 0.375
2.375 1.275 0.375
1.675 1.225 0.42500001
1.675 1.275 0.42500001
1.725 1.225 0.42500001
1.775 1.225 0.42500001
1.725 1.275 0.42500001
1.775 1.275 0.42500001
1.825 1.225 0.42500001
1.875 1.225 0.42500001
1.825 1.275 0.42500001
1.875 1.225 0.47499999
1.925 1.225 0.42500001
1.975 1.225 0.42500001
1.925 1.275 0.42500001
1.925 1.225 0.47499999
1.975 1.225 0.47499999
1.975 1.275 0.47499999
2.0250001 1.225 0.42500001
2.075 1.225 0.42500001
2.075 1.275 0.42500001
2.0250001 1.225 0.47499999
2.075 1.225 0.47499999
2.0250001 1.275 0.47499999
2.125 1.225 0.42500001
2.175 1.225 0.42500001
2.125 1.275 0.42500001
2.125 1.225 0.47499999
2.175 1.225 0.47499999
2.075 1.225 0.52499998
2.075 1.275 0.52499998
2.125 1.225 0.52499998
2.175 1.225 0.52499998
2.175 1.275 0.52499998
2.175 1.225 0.57499999
2.2249999 1.225 0.42500001
2.2750001 1.225 0.42500001
2.2249999 1.275 0.42500001
2.2750001 1.275 0.42500001
2.2249999 1.225 0.47499999
2.2750001 1.225 0.47499999
2.325 1.225 0.42500001
2.375 1.225 0.42500001
2.325 1.275 0.42500001
2.375 1.275 0.42500001
2.325 1.225 0.47499999
2.375 1.225 0.47499999
2.325 1.275 0.47499999
2.375 1.275 0.47499999
2.2249999 1.225 0.52499998
2.2750001 1.225 0.52499998
2.2249999 1.275 0.52499998
2.2750001 1.275 0.52499998
2.2249999 1.225 0.57499999
2.2750001 1.225 0.57499999
2.2750001 1.275 0.57499999
2.325 1.225 0.52499998
2.375 1.225 0.52499998
2.325 1.275 0.52499998
2.375 1.275 0.52499998
2.325 1.225 0.57499999
2.375 1.225 0.57499999
2.325 1.275 0.57499999
2.325 1.225 0.625
2.375 1.225 0.625
2.375 1.275 0.625
2.425 1.275 0.125
2.4749999 1.275 0.125
2.425 1.275 0.175
2.4749999 1.275 0.175
2.5250001 1.275 0.125
2.575 1.275 0.125
2.5250001 1.275 0.175
2.575 1.275 0.175
2.625 1.275 0.125
2.675 1.275 0.125
2.625 1.275 0.175
2.675 1.275 0.175
2.7249999 1.275 0.125
2.7750001 1.275 0.125
2.7249999 1.275 0.175
2.7750001 1.275 0.175
2.425 1.275 0.22499999
2.4749999 1.275 0.22499999
2.425 1.225 0.27500001
2.425 1.275 0.27500001
2.4749999 1.275 0.27500001
2.5250001 1.275 0.22499999
2.575 1.275 0.22499999
2.5250001 1.275 0.27500001
2.575 1.275 0.27500001
2.425 1.225 0.32499999
2.4749999 1.225 0.32499999
2.425 1.275 0.32499999
2.4749999 1.275 0.32499999
2.425 1.225 0.375
2.4749999 1.225 0.375
2.425 1.275 0.375
2.4749999 1.275 0.375
2.5250001 1.275 0.32499999
2.575 1.275 0.32499999
2.5250001 1.225 0.375
2.5250001 1.275 0.375
2.575 1.275 0.375
2.625 1.275 0.22499999
2.675 1.275 0.22499999
2.625 1.275 0.27500001
2.675 1.275 0.27500001
2.7249999 1.275 0.22499999
2.7750001 1.275 0.22499999
2.7249999 1.275 0.27500001
2.7750001 1.275 0.27500001
2.625 1.275 0.32499999
2.675 1.275 0.32499999
2.625 1.275 0.375
2.675 1.275 0.375
2.7249999 1.275 0.32499999
2.7750001 1.275 0.32499999
2.7249999 1.275 0.375
2.7750001 1.275 0.375
2.825 1.275 0.125
2.875 1.275 0.125
2.825 1.275 0.175
2.875 1.275 0.175
2.925 1.275 0.125
2.9749999 1.275 0.125
2.925 1.275 0.175
2.9749999 1.275 0.175
3.075 1.225 0.125
3.0250001 1.275 0.125
3.075 1.275 0.125
3.0250001 1.275 0.175
3.075 1.275 0.175
3.125 1.225 0.125
3.125 1.275 0.125
3.175 1.275 0.125
3.125 1.275 0.175
3.175 1.275 0.175
2.825 1.275 0.22499999
2.875 1.275 0.22499999
2.825 1.275 0.27500001
2.875 1.275 0.27500001
2.925 1.275 0.22499999
2.9749999 1.275 0.22499999
2.925 1.275 0.27500001
2.9749999 1.275 0.27500001
2.825 1.275 0.32499999
2.875 1.275 0.32499999
2.825 1.275 0.375
2.875 1.275 0.375
2.925 1.275 0.32499999
2.9749999 1.275 0.32499999
2.925 1.275 0.375
2.9749999 1.275 0.375
3.0250001 1.275 0.22499999
3.075 1.275 0.22499999
3.0250001 1.275 0.27500001
3.075 1.275 0.27500001
3.125 1.275 0.22499999
3.175 1.275 0.22499999
3.125 1.275 0.27500001
3.175 1.275 0.27500001
3.0250001 1.275 0.32499999
3.075 1.275 0.32499999
3.0250001 1.275 0.375
3.075 1.275 0.375
3.125 1.275 0.32499999
3.175 1.275 0.32499999
3.125 1.275 0.375
3.175 1.275 0.375
2.7249999 1.175 0.72500002
2.7750001 1.175 0.72500002
2.825 1.175 0.72500002
2.875 1.175 0.72500002
2.425 1.225 0.42500001
2.4749999 1.225 0.42500001
2.425 1.275 0.42500001
2.4749999 1.275 0.42500001
2.425 1.225 0.47499999
2.4749999 1.225 0.47499999
2.425 1.275 0.47499999
2.4749999 1.275 0.47499999
2.5250001 1.225 0.42500001
2.575 1.225 0.42500001
2.5250001 1.275 0.42500001
2.575 1.275 0.42500001
2.5250001 1.225 0.47499999
2.575 1.225 0.47499999
2.5250001 1.275 0.47499999
2.575 1.275 0.47499999
2.425 1.225 0.52499998
2.4749999 1.225 0.52499998
2.425 1.275 0.52499998
2.4749999 1.275 0.52499998
2.425 1.225 0.57499999
2.4749999 1.225 0.57499999
2.4749999 1.275 0.57499999
2.5250001 1.225 0.52499998
2.575 1.225 0.52499998
2.5250001 1.275 0.52499998
2.575 1.275 0.52499998
2.5250001 1.225 0.57499999
2.575 1.225 0.57499999
2.5250001 1.275 0.57499999
2.575 1.275 0.57499999
2.625 1.225 0.42500001
2.625 1.275 0.42500001
2.675 1.275 0.42500001
2.625 1.225 0.47499999
2.675 1.225 0.47499999
2.625 1.275 0.47499999
2.675 1.275 0.47499999
2.7249999 1.275 0.42500001
2.7750001 1.275 0.42500001
2.7249999 1.275 0.47499999
2.7750001 1.275 0.47499999
2.6500001 1.25 0.55000001
2.7249999 1.275 0.52499998
2.7750001 1.275 0.52499998
2.7249999 1.225 0.57499999
2.7750001 1.225 0.57499999
2.7249999 1.275 0.57499999
2.7750001 1.275 0.57499999
2.425 1.225 0.625
2.4749999 1.225 0.625
2.425 1.275 0.625
2.4749999 1.225 0.67500001
2.5250001 1.225 0.625
2.575 1.225 0.625
2.575 1.275 0.625
2.5250001 1.225 0.67500001
2.575 1.225 0.67500001
2.575 1.275 0.67500001
2.575 1.225 0.72500002
2.625 1.225 0.625
2.675 1.225 0.625
2.625 1.275 0.625
2.675 1.275 0.625
2.625 1.225 0.67500001
2.675 1.225 0.67500001
2.625 1.275 0.67500001
2.675 1.275 0.67500001
2.7249999 1.225 0.625
2.7750001 1.225 0.625
2.7249999 1.275 0.625
2.7750001 1.275 0.625
2.7249999 1.225 0.67500001
2.7750001 1.225 0.67500001
2.7249999 1.275 0.67500001
2.7750001 1.275 0.67500001
2.625 1.225 0.72500002
2.675 1.225 0.72500002
2.625 1.275 0.72500002
2.7249999 1.225 0.72500002
2.7750001 1.225 0.72500002
2.825 1.275 0.42500001
2.875 1.275 0.42500001
2.825 1.275 0.47499999
2.875 1.275 0.47499999
2.925 1.275 0.42500001
2.9749999 1.275 0.42500001
2.925 1.275 0.47499999
2.9749999 1.275 0.47499999
2.825 1.275 0.52499998
2.875 1.275 0.52499998
2.825 1.275 0.57499999
2.875 1.275 0.57499999
2.925 1.275 0.52499998
2.9749999 1.275 0.52499998
2.925 1.275 0.57499999
2.9749999 1.275 0.57499999
3.0250001 1.275 0.42500001
3.075 1.275 0.42500001
3.0250001 1.275 0.47499999
3.075 1.275 0.47499999
3.125 1.275 0.42500001
3.175 1.275 0.42500001
3.125 1.275 0.47499999
3.175 1.275 0.47499999
3.0250001 1.275 0.52499998
3.075 1.275 0.52499998
3.0250001 1.275 0.57499999
3.075 1.275 0.57499999
3.125 1.275 0.52499998
3.175 1.275 0.52499998
3.125 1.275 0.57499999
3.175 1.275 0.57499999
2.825 1.225 0.625
2.825 1.275 0.625
2.875 1.275 0.625
2.825 1.225 0.67500001
2.875 1.225 0.67500001
2.825 1.275 0.67500001
2.875 1.275 0.67500001
2.925 1.275 0.625
2.9749999 1.275 0.625
2.925 1.225 0.67500001
2.9749999 1.225 0.67500001
2.925 1.275 0.67500001
2.9749999 1.275 0.67500001
2.825 1.225 0.72500002
2.875 1.225 0.72500002
2.825 1.275 0.72500002
2.875 1.275 0.72500002
2.925 1.225 0.72500002
2.9749999 1.225 0.72500002
2.925 1.275 0.72500002
2.9749999 1.275 0.72500002
3.0250001 1.275 0.625
3.075 1.275 0.625
3.075 1.225 0.67500001
3.0250001 1.275 0.67500001
3.075 1.275 0.67500001
3.125 1.275 0.625
3.175 1.275 0.625
3.125 1.275 0.67500001
3.175 1.275 0.67500001
3.0250001 1.225 0.72500002
3.075 1.225 0.72500002
3.075 1.275 0.72500002
3.125 1.225 0.72500002
3.175 1.225 0.72500002
3.125 1.275 0.72500002
2.925 1.675 0.92500001
2.9749999 1.675 0.92500001
3.2249999 1.275 0.125
3.2750001 1.275 0.125
3.2249999 1.275 0.175
3.2750001 1.275 0.175
3.325 1.275 0.125
3.375 1.275 0.125
3.325 1.275 0.175
3.375 1.275 0.175
3.425 1.275 0.125
3.4749999 1.275 0.125
3.425 1.275 0.175
3.4749999 1.275 0.175
3.5250001 1.275 0.125
3.575 1.275 0.125
3.5250001 1.275 0.175
3.575 1.275 0.175
3.2249999 1.275 0.22499999
3.2750001 1.275 0.22499999
3.2249999 1.275 0.27500001
3.2750001 1.275 0.27500001
3.325 1.275 0.22499999
3.375 1.275 0.22499999
3.325 1.275 0.27500001
3.375 1.275 0.27500001
3.2249999 1.275 0.32499999
3.2750001 1.275 0.32499999
3.2249999 1.275 0.375
3.2750001 1.275 0.375
3.325 1.275 0.32499999
3.375 1.275 0.32499999
3.325 1.275 0.375
3.375 1.275 0.375
3.425 1.275 0.22499999
3.4749999 1.275 0.22499999
3.425 1.275 0.27500001
3.4749999 1.275 0.27500001
3.5250001 1.275 0.22499999
3.575 1.275 0.22499999
3.5250001 1.275 0.27500001
3.575 1.275 0.27500001
3.425 1.275 0.32499999
3.4749999 1.275 0.32499999
3.425 1.275 0.375
3.4749999 1.275 0.375
3.5250001 1.275 0.32499999
3.575 1.275 0.32499999
3.5250001 1.275 0.375
3.575 1.275 0.375
3.625 1.275 0.125
3.675 1.275 0.125
3.625 1.275 0.175
3.675 1.275 0.175
3.7249999 1.275 0.125
3.7750001 1.275 0.125
3.7249999 1.275 0.175
3.7750001 1.275 0.175
3.825 1.275 0.125
3.875 1.275 0.125
3.825 1.275 0.175
3.875 1.275 0.175
3.925 1.275 0.125
3.9749999 1.275 0.125
3.925 1.275 0.175
3.9749999 1.275 0.175
3.625 1.275 0.22499999
3.675 1.275 0.22499999
3.625 1.275 0.27500001
3.675 1.275 0.27500001
3.7249999 1.275 0.22499999
3.7750001 1.275 0.22499999
3.7249999 1.275 0.27500001
3.7750001 1.275 0.27500001
3.625 1.275 0.32499999
3.675 1.275 0.32499999
3.625 1.275 0.375
3.675 1.275 0.375
3.7249999 1.275 0.32499999
3.7750001 1.275 0.32499999
3.7249999 1.275 0.375
3.7750001 1.275 0.375
3.825 1.275 0.22499999
3.875 1.275 0.22499999
3.825 1.275 0.27500001
3.875 1.275 0.27500001
3.925 1.275 0.22499999
3.9749999 1.275 0.22499999
3.925 1.275 0.27500001
3.9749999 1.275 0.27500001
3.825 1.275 0.32499999
3.875 1.275 0.32499999
3.825 1.275 0.375
3.875 1.275 0.375
3.925 1.275 0.32499999
3.9749999 1.275 0.32499999
3.925 1.275 0.375
3.9749999 1.275 0.375
3.2249999 1.275 0.42500001
3.2750001 1.275 0.42500001
3.2249999 1.275 0.47499999
3.2750001 1.275 0.47499999
3.325 1.275 0.42500001
3.375 1.275 0.42500001
3.325 1.275 0.47499999
3.375 1.275 0.47499999
3.2249999 1.275 0.52499998
3.2750001 1.275 0.52499998
3.2249999 1.275 0.57499999
3.2750001 1.275 0.57499999
3.325 1.275 0.52499998
3.375 1.275 0.52499998
3.325 1.275 0.57499999
3.375 1.275 0.57499999
3.425 1.275 0.42500001
3.4749999 1.275 0.42500001
3.425 1.275 0.47499999
3.4749999 1.275 0.47499999
3.5250001 1.275 0.42500001
3.575 1.275 0.42500001
3.5250001 1.275 0.47499999
3.575 1.275 0.47499999
3.425 1.275 0.52499998
3.4749999 1.275 0.52499998
3.425 1.275 0.57499999
3.4749999 1.275 0.57499999
3.5250001 1.275 0.52499998
3.575 1.275 0.52499998
3.5250001 1.275 0.57499999
3.575 1.275 0.57499999
3.2249999 1.275 0.625
3.2750001 1.275 0.625
3.2249999 1.225 0.67500001
3.2249999 1.275 0.67500001
3.2750001 1.275 0.67500001
3.325 1.275 0.625
3.375 1.275 0.625
3.325 1.275 0.67500001
3.375 1.275 0.67500001
3.2249999 1.225 0.72500002
3.2750001 1.225 0.72500002
