# .PCD v0.7 - Point Cloud Data file format
VERSION 0.7
FIELDS x y z
SIZE 4 4 4
TYPE F F F
COUNT 1 1 1
WIDTH 1739
HEIGHT 1
VIEWPOINT 0 0 0 1 0 0 0
POINTS 1739
DATA ascii
2.3250003 10.258333 0.64166665
6.1750002 10.225 0.64999998
6.2416668 10.258334 0.64999998
7.2583332 10.258334 0.65000004
7.3249998 10.225 0.64999998
10.375 10.275 0.625
10.450001 10.225 0.64999998
2.375 10.35 0.64999998
2.425 10.375 0.64999998
6.2750001 10.325 0.64999998
6.3416667 10.358334 0.64999998
6.4250002 10.375 0.625
7.1583338 10.358334 0.64999998
7.2249999 10.325 0.64999998
10.35 10.337501 0.63749999
2.4583335 10.441668 0.64999998
2.5250001 10.475 0.64999998
6.375 10.425 0.64999998
6.4416666 10.458334 0.64999998
7.0749998 10.475 0.625
7.1374998 10.4375 0.64999998
10.25 10.450001 0.64999998
10.325 10.425 0.67500001
2.5583334 10.541666 0.64999998
2.625 10.575 0.64999998
6.4749999 10.525 0.64999998
6.541667 10.558333 0.64999998
6.625 10.575 0.625
10.158333 10.558333 0.64999998
10.225 10.525 0.625
2.6583333 10.641666 0.64999998
2.7249999 10.675 0.64999998
6.5749998 10.625 0.64999998
6.6416664 10.658333 0.64999998
10.058333 10.658333 0.64999998
10.125 10.625 0.64999998
2.7549999 10.735 0.64499998
2.825 10.775 0.64999998
6.6750002 10.725 0.64999998
6.7416663 10.758334 0.64999998
9.958333 10.758334 0.64999998
10.025 10.725 0.625
2.875 10.875 0.67500001
9.8625002 10.8625 0.64999998
9.9250002 10.825 0.64999998
9.75 10.975 0.64999998
9.8249998 10.925 0.64999998
9.6583328 11.058333 0.64999998
9.7250004 11.025 0.64999998
2.825 11.175 0.625
9.5583344 11.158333 0.64999998
9.625 11.125 0.64999998
2.7750001 11.225 0.64999998
2.8374999 11.262501 0.63749999
9.458334 11.258334 0.64999998
9.5249996 11.225 0.64999998
2.875 11.325 0.64999998
2.9499998 11.358334 0.64166665
9.3583336 11.358334 0.64999998
9.4250002 11.325 0.64999998
2.9749999 11.425 0.64999998
3.0416667 11.458334 0.64999998
9.2583342 11.458334 0.64999998
9.3249998 11.425 0.64999998
3.075 11.525 0.64999998
3.1416669 11.558333 0.65000004
3.575 11.575 0.625
3.6416664 11.558333 0.64999998
3.7249999 11.575 0.67500001
9.1583328 11.558333 0.65000004
9.2250004 11.525 0.64999998
3.175 11.625 0.67500001
3.2416668 11.641666 0.64166665
3.675 11.65 0.625
3.7416668 11.658333 0.64999998
9.0583334 11.658333 0.64999998
9.125 11.625 0.64999998
3.2750001 11.725 0.64999998
3.325 11.725 0.64999998
3.7750001 11.725 0.64999998
3.8416667 11.758334 0.64999998
8.9750004 11.758334 0.64166665
9.0249996 11.725 0.64999998
3.875 11.825 0.64999998
3.9416664 11.858334 0.64999998
8.875 11.858334 0.64166665
8.9250011 11.841667 0.64166665
3.9749999 11.925 0.64999998
4.041667 11.958334 0.65000004
8.7749996 11.975 0.64999998
8.835001 11.945 0.64499998
4.0749998 12.025 0.64999998
4.1416664 12.058333 0.64999998
8.6750002 12.075 0.64999998
8.7449999 12.035001 0.64499998
4.1750002 12.125 0.64999998
4.2416668 12.158333 0.65000004
8.5749998 12.175 0.64999998
8.6416664 12.141666 0.64999998
4.2750001 12.225 0.67500001
4.3416667 12.258334 0.64999998
8.4750004 12.275 0.64999998
8.5450001 12.235001 0.64499998
4.375 12.325 0.64999998
4.4416666 12.358334 0.65000004
8.375 12.375 0.64999998
8.4350004 12.345 0.64499998
4.4749999 12.425 0.64999998
4.5464287 12.453572 0.64642859
4.625 12.475 0.625
8.2583332 12.475001 0.64166665
8.3450003 12.445 0.64499998
4.5749998 12.525 0.67500001
4.6500006 12.550001 0.65000004
4.7249999 12.575 0.625
8.1583328 12.575 0.65833336
8.2250004 12.541667 0.64166665
4.7550001 12.645 0.65500003
4.8249998 12.675 0.64999998
8.0749998 12.658333 0.6583333
8.1416664 12.625 0.64166665
4.8249998 12.741667 0.64166665
8.0749998 12.75 0.64999998
8.1499996 12.775 0.64999998
8.165 12.845 0.64499998
8.0583334 12.975001 0.6583333
8.1416664 12.941668 0.64999998
7.9583335 13.058333 0.64999998
8.041666 13.025 0.65833336
7.8583336 13.158333 0.64999998
7.9250007 13.141666 0.65833336
7.7583332 13.258334 0.64999998
7.8374996 13.237499 0.66250002
7.6625004 13.35 0.66249996
7.7375002 13.3375 0.66249996
4.1625004 13.462501 0.63749999
4.2249999 13.425 0.625
7.5749998 13.475 0.67500001
7.6416664 13.441668 0.67500007
4.0749998 13.575 0.64999998
4.125 13.55 0.64999998
7.4749999 13.575 0.67500001
7.5500002 13.55 0.67500001
7.625 13.525 0.67500001
3.9749999 13.675 0.64999998
4.0349998 13.645 0.65500003
7.375 13.675 0.67500001
7.4416671 13.641666 0.67500007
7.5250001 13.625 0.67500001
3.875 13.775 0.64999998
3.9416666 13.741668 0.64999998
7.2750001 13.775 0.67500001
7.3416667 13.741667 0.67500007
3.7750001 13.875 0.64999998
3.8416669 13.841666 0.64999998
7.1750002 13.875 0.64999998
7.2374997 13.837501 0.66250002
7.3249998 13.825 0.67500001
3.675 13.975 0.64999998
3.7416668 13.941669 0.65000004
6.7750006 13.958334 0.64166665
6.8416667 13.958334 0.64999998
6.9250002 13.975 0.625
7.0749998 13.975 0.64999998
7.1374998 13.9375 0.66250002
3.575 14.075 0.64999998
3.6450002 14.035001 0.65499997
6.6750002 14.075 0.64999998
6.7464285 14.046429 0.64642859
6.9500003 14.05 0.64999998
7.0416675 14.049999 0.6583333
7.125 14.025 0.67500001
3.4749999 14.175 0.64999998
3.5450001 14.135001 0.64499998
6.5749998 14.175 0.625
6.6464286 14.146429 0.64642859
6.7249999 14.125 0.625
3.375 14.275 0.64999998
3.4349999 14.245 0.65500003
6.5583339 14.258333 0.64999998
6.625 14.225 0.64999998
3.2750001 14.375 0.64999998
3.3349998 14.345001 0.64499998
6.4583335 14.358334 0.64999998
6.5250001 14.325 0.64999998
3.175 14.475 0.625
3.2350004 14.445 0.65500003
6.3583336 14.458334 0.64999998
6.4250002 14.425 0.64999998
3.075 14.575 0.625
3.1450002 14.545 0.64499998
6.2583332 14.558333 0.64999998
6.3416667 14.525 0.64166665
3.0449998 14.645 0.64499998
6.1750007 14.658333 0.64166665
6.2416668 14.625 0.64166665
2.9583335 14.741667 0.6583333
6.0749998 14.775 0.64999998
6.145 14.735 0.65499997
5.9749999 14.875 0.64999998
6.041667 14.841666 0.64999998
5.875 14.958334 0.65833336
5.9416666 14.941668 0.64999998
5.7750001 15.075 0.64999998
5.8416667 15.041667 0.64999998
5.6750002 15.175 0.64999998
5.7374997 15.1375 0.63749999
5.5749998 15.275 0.64999998
5.6416664 15.241667 0.64999998
5.4749999 15.375 0.64999998
5.5349998 15.345 0.64499998
5.375 15.475 0.67500001
5.4349999 15.445002 0.65500003
5.2750001 15.575 0.67500001
5.3449998 15.545 0.64499998
5.25 15.65 0.64999998
5.1500001 15.75 0.64999998
5.0549998 15.855 0.65500003
4.9499998 15.95 0.64999998
5.0250001 15.925 0.67500001
4.8499999 16.037498 0.66249996
4.7583332 16.141666 0.65833336
4.6500001 16.25 0.67500001
4.5500002 16.35 0.67500001
4.4250002 16.475 0.67500001
4.5250001 16.424999 0.67500001
4.375 16.549999 0.67500001
4.2750001 16.625 0.67500001
4.1750002 16.725 0.625
4.2249999 16.725 0.67500001
-0.82499999 -1.125 0.77499998
-0.75833338 -1.1583333 0.75000012
-0.64999998 -1.15 0.72500002
-0.82499999 -1.0583334 0.74166667
-0.77499998 -1.0583334 0.74166667
-0.85000002 -0.95000005 0.72500002
-0.97500002 -0.875 0.72500002
-1.05 -0.75 0.72500002
-1.125 -0.625 0.72500002
-1.225 -0.57499999 0.72500002
-1.175 -0.57499999 0.72500002
-1.325 -0.42500001 0.72500002
-1.275 -0.44999999 0.72500002
-1.4416666 -0.34166667 0.72500008
-1.3583333 -0.35833335 0.72500008
-1.5416667 -0.24166667 0.72500008
-1.45 -0.27500001 0.72500002
-1.6416668 -0.14166668 0.72500008
-1.575 -0.175 0.72500002
-1.7416667 -0.041666668 0.72500008
-1.675 -0.075000003 0.72500002
-1.8416667 0.058333337 0.72500008
-1.775 0.025 0.72500002
-2.0250001 0.175 0.75
-1.9416666 0.175 0.74166667
-1.875 0.125 0.72500002
-2.0535715 0.24642858 0.74642855
-1.975 0.22499999 0.75
-2.1416669 0.35833335 0.72500008
-2.0750003 0.34166667 0.74166667
-2.2249999 0.47499999 0.72500002
-2.175 0.42500001 0.72500002
1.15 0.47499999 0.72500002
-2.425 0.57499999 0.72500002
-2.325 0.57499999 0.72500002
-2.25 0.52499998 0.72500002
1.0649999 0.55500001 0.74500006
1.145 0.53499997 0.745
-2.4416666 0.65833336 0.72500008
-2.3583333 0.64166665 0.72500008
1.025 0.625 0.72500002
-2.5250001 0.77499998 0.72500002
-2.4583335 0.74166667 0.72500008
-2.625 0.875 0.72500002
-2.5583334 0.8416667 0.72500008
0.77499998 0.875 0.72500002
0.875 0.82499999 0.72500002
-2.7249999 0.97500002 0.72500002
-2.6583335 0.94166672 0.72500008
0.67500001 0.97500002 0.72500002
0.73749995 0.94999999 0.75
-2.825 1.075 0.72500002
-2.7583332 1.0416667 0.72500008
0.57499999 1.075 0.72500002
0.64166665 1.0583334 0.75833338
-2.925 1.175 0.72500002
-2.8583333 1.1416667 0.72500008
0.47499999 1.175 0.75
0.53499997 1.1450001 0.74500006
-3.0250001 1.275 0.72500002
-2.9583335 1.2416667 0.72500008
0.375 1.275 0.75
0.44166669 1.2416667 0.75
-3.125 1.375 0.72500002
-3.0583334 1.3416667 0.72500008
0.27500001 1.375 0.75
0.34166667 1.3416666 0.75
-3.2249999 1.475 0.72500002
-3.1583335 1.4416666 0.72500008
0.175 1.475 0.75
0.24642858 1.4464287 0.75357139
-3.325 1.575 0.72500002
-3.2583332 1.5416667 0.72500008
0.075000003 1.575 0.75
0.14166668 1.5416667 0.75
0.22499999 1.525 0.77499998
-3.425 1.675 0.72500002
-3.3499999 1.65 0.72500002
-0.025 1.675 0.75
0.04642858 1.6464286 0.75357145
-3.4583335 1.7416667 0.72500008
-0.125 1.775 0.77499998
-0.053571437 1.7464287 0.75357145
-3.625 1.875 0.72500002
-3.5500002 1.85 0.72500002
-3.4749999 1.825 0.72500002
-0.15000001 1.8499999 0.75
-0.075000003 1.825 0.77499998
-3.75 1.975 0.72500002
-3.6450002 1.9550002 0.73499995
-3.575 1.925 0.72500002
-0.32499999 1.975 0.75
-0.25 1.9500002 0.75833333
-0.175 1.925 0.77499998
-3.7583332 2.041667 0.72500008
-3.6583335 2.0250001 0.75833338
-0.34999999 2.0500002 0.75833333
-0.27500001 2.0250001 0.72500002
-3.8416667 2.1583333 0.72500008
-3.7750001 2.125 0.72500002
-0.52499998 2.175 0.77499998
-0.45499998 2.1450002 0.745
-0.375 2.125 0.72500002
-3.925 2.25 0.72500002
-3.875 2.2249999 0.72500002
-0.625 2.2750001 0.77499998
-0.54642856 2.2535717 0.74642861
-0.47499999 2.2249999 0.72500002
-4.0500002 2.375 0.72500002
-3.9749999 2.325 0.72500002
-0.64642853 2.3535717 0.74642861
-4.0749998 2.425 0.72500002
-0.74642861 2.4535713 0.75357145
-0.67500001 2.425 0.77499998
-4.2416668 2.5583334 0.72500008
-4.1750002 2.575 0.72500002
-0.8416667 2.5583334 0.74999994
-0.77499998 2.5250001 0.75
1.0416667 2.5583334 0.75
-4.3249998 2.675 0.72500002
-4.2583332 2.6416669 0.72500008
-0.94166672 2.6583335 0.75000012
-0.875 2.625 0.75
1.075 2.625 0.75
1.125 2.6500001 0.72500002
-4.4250002 2.7750001 0.72500002
-4.3583336 2.7416668 0.72500008
-1.0416667 2.7583332 0.75
-0.97500002 2.7249999 0.75
-4.5250001 2.8499999 0.72500002
-4.4583335 2.8416667 0.72500008
-1.225 2.875 0.77499998
-1.1416668 2.8583333 0.75000012
-1.075 2.825 0.75
-4.625 2.9749999 0.72500002
-4.5583334 2.9416666 0.72500008
-1.2250001 2.9416666 0.74166667
-1.175 2.9499998 0.75
-4.7249999 3.075 0.72500002
-4.6583338 3.0416667 0.72500008
-1.145 3.0449998 0.75499994
-1.075 3.075 0.75
-4.8249998 3.175 0.72500002
-4.7583332 3.1416669 0.72500008
-1.0416667 3.1416669 0.75
-0.97500002 3.175 0.75
1.675 3.1583335 0.74166667
1.725 3.175 0.75
-4.9250002 3.2750001 0.72500002
-4.8583336 3.2416668 0.72500008
-0.94166672 3.2416666 0.75
-0.875 3.2750001 0.75
1.725 3.2249999 0.75
-5.0250001 3.375 0.72500002
-4.9583335 3.3416667 0.72500008
-0.8416667 3.3416669 0.75
-0.77499998 3.375 0.75
-5.125 3.4749999 0.72500002
-5.0583334 3.4416666 0.72500008
-0.74166673 3.4416666 0.75
-0.67500001 3.4749999 0.75
-5.2249999 3.575 0.72500002
-5.1583338 3.5416667 0.72500008
-0.64166665 3.5416667 0.75000012
-0.57499999 3.575 0.75
-5.3249998 3.675 0.72500002
-5.2583332 3.6416669 0.72500008
-0.54166669 3.6416664 0.75
-0.47499999 3.675 0.75
-5.4250002 3.7750001 0.72500002
-5.3583336 3.7416668 0.72500008
-0.44166666 3.7416668 0.75000012
-0.375 3.7750001 0.75
-0.27500001 3.7750001 0.72500002
-5.5250001 3.875 0.72500002
-5.4499998 3.8499999 0.72500002
-0.345 3.8349998 0.745
-0.27500001 3.875 0.75
-5.625 3.9749999 0.75
-5.5749998 3.9583335 0.74166667
-0.25 3.925 0.75
1.025 3.9749999 0.72500002
-5.7249999 4.0749998 0.75
-5.6650004 4.0450001 0.75500005
0.875 4.0749998 0.77499998
0.9375 4.0500002 0.75
-5.8249998 4.1583338 0.74166667
-5.7624998 4.1374998 0.76250005
0.77499998 4.1750002 0.75
0.8416667 4.1416669 0.75
2.675 4.1750002 0.77499998
2.7249999 4.1750002 0.75
-5.9250002 4.2750001 0.75
-5.8583336 4.2416668 0.72500008
0.74166667 4.2416668 0.75000012
2.575 4.2750001 0.75
2.6450002 4.2350001 0.745
2.7583332 4.2416668 0.75000012
2.8499999 4.2750001 0.75
-6.0250001 4.375 0.72500002
-5.9583335 4.3416667 0.72500008
0.66499996 4.355 0.74500006
2.4749999 4.375 0.75
2.5450001 4.3449998 0.745
2.875 4.3499999 0.75
2.9375 4.3625002 0.73750007
-6.125 4.4749999 0.72500002
-6.0583334 4.4416666 0.72500008
2.375 4.4749999 0.75
2.4499998 4.4499998 0.75
2.9583335 4.4250002 0.75833338
3.0374999 4.4624996 0.75
-6.2249999 4.5749998 0.72500002
-6.1583338 4.541667 0.72500008
0.42500004 4.5583334 0.74166667
2.3499999 4.5250001 0.75
3.0625 4.5374999 0.73749995
3.135 4.5549998 0.75499994
3.2249999 4.5749998 0.72500002
-6.3249998 4.6750002 0.75
-6.2650003 4.645 0.745
0.45833331 4.6416664 0.75000012
0.52499998 4.6750002 0.75
0.625 4.6583338 0.74166667
3.175 4.625 0.72500002
3.2750001 4.6750002 0.72500002
3.325 4.6750002 0.77499998
-6.4250002 4.7750001 0.72500002
-6.375 4.75 0.75
0.55833334 4.7416668 0.75000012
0.64999998 4.75 0.75
0.72500002 4.7750001 0.75
2.175 4.7750001 0.77499998
3.3416669 4.7583332 0.75
-6.5250001 4.875 0.72500002
-6.4499998 4.8374996 0.75
0.6583333 4.8416667 0.74999994
0.74166667 4.8583336 0.75
2.0625 4.8625002 0.75
2.125 4.8249998 0.77499998
3.375 4.8249998 0.75
3.4416666 4.8583336 0.75
-6.6500001 4.9749999 0.72500002
-6.5583334 4.9416666 0.75833338
-3.125 4.9749999 0.75
-3.075 4.9749999 0.77499998
0.75 4.9250002 0.75
0.84642857 4.9535713 0.74642855
0.92500001 4.9749999 0.72500002
1.975 4.9499998 0.75
2.0250001 4.9250002 0.75
3.4749999 4.9250002 0.75
3.5250001 4.9499998 0.75
-6.7249999 5.0749998 0.72500002
-6.6625004 5.0500002 0.75
-3.325 5.0749998 0.75
-3.2583332 5.041667 0.75000012
-3.1500001 5.0250001 0.75
-3.0535715 5.0535717 0.75357157
0.875 5.0250001 0.75
0.95000005 5.0500002 0.75
1.025 5.0749998 0.72500002
1.8583333 5.0583334 0.74999994
1.925 5.0250001 0.75
-6.8249998 5.1750002 0.72500002
-6.7583332 5.1416669 0.74999994
-3.425 5.1750002 0.75
-3.3500001 5.1499996 0.74999994
-3.2750001 5.125 0.75
-3.0250001 5.125 0.75
-2.9583335 5.1583338 0.75
0.97500002 5.125 0.75
1.05 5.1499996 0.75
1.125 5.1750002 0.77499998
1.775 5.1416669 0.74166667
1.825 5.125 0.75
-6.9250002 5.2750001 0.77499998
-6.8583336 5.2583332 0.74166667
-6.7750001 5.2249999 0.77499998
-3.5250001 5.2750001 0.75
-3.4464288 5.2535715 0.74642855
-3.375 5.25 0.75
-2.925 5.2249999 0.75
-2.8583333 5.2583332 0.75000012
-2.7750001 5.2750001 0.77499998
1.075 5.2249999 0.75
1.1464286 5.253572 0.74642861
-6.9499998 5.3499999 0.77499998
-3.5500002 5.3500004 0.74999994
-3.4749999 5.3249998 0.77499998
-2.825 5.3249998 0.75
-2.7535715 5.3535719 0.75357139
1.175 5.3249998 0.75
1.2464287 5.3535714 0.74642861
-3.7249999 5.4749999 0.75
-3.6499999 5.4499993 0.75
-3.575 5.4250002 0.75
-2.6464288 5.4464288 0.75357145
-2.575 5.4749999 0.75
1.275 5.4250002 0.75
1.3416666 5.4583335 0.75
-3.825 5.5749998 0.75
-3.75 5.5500002 0.75
-3.675 5.5250001 0.75
-2.625 5.5250001 0.77499998
-2.5416665 5.541667 0.74999994
-2.4749999 5.5749998 0.75
1.375 5.5250001 0.75
1.4416668 5.5416675 0.75
2.675 5.5749998 0.75
2.7249999 5.5749998 0.75
-3.925 5.6750002 0.72500002
-3.8500001 5.6499996 0.74166667
-3.7750001 5.625 0.75
-2.4416666 5.6416664 0.75
-2.375 5.6750002 0.75
2.575 5.6750002 0.75
2.6416669 5.6416664 0.74999994
-3.9464288 5.7535715 0.74642861
-3.875 5.7249999 0.75
-2.3416667 5.7416668 0.75000012
-2.2750001 5.7750001 0.75
2.4749999 5.7750001 0.75
2.5416667 5.7416668 0.74999994
-4.0464282 5.8535719 0.74642861
-3.9749999 5.8249998 0.77499998
-2.2416668 5.8416667 0.74999994
-2.175 5.875 0.75
2.375 5.875 0.75
2.4535713 5.8535719 0.75357139
2.5250001 5.8249998 0.77499998
-4.1416664 5.9583335 0.74999994
-2.135 5.9450002 0.74500006
-2.075 5.9749999 0.75
2.3535714 5.9535718 0.75357145
2.425 5.9250002 0.75
-4.2416668 6.0583339 0.75
-4.1750002 6.0250001 0.75
-2.0416667 6.041667 0.75000012
-1.975 6.0749998 0.75
2.325 6.0250001 0.77499998
-4.3416667 6.1583338 0.75
-4.2750001 6.125 0.75
-1.9349998 6.145 0.745
-1.875 6.1750002 0.75
-4.4416671 6.2583332 0.74999994
-4.375 6.2249999 0.75
-1.8416667 6.2416668 0.75
-1.775 6.2750001 0.75
2.1416669 6.2583332 0.74999994
2.2249999 6.2750001 0.77499998
-4.5450001 6.3550005 0.75500005
-4.4625001 6.3374996 0.75
-1.7416668 6.3416667 0.75
-1.675 6.375 0.75
2.2583332 6.3416667 0.75
2.325 6.375 0.77499998
5.4749999 6.375 0.77499998
-4.6416664 6.458333 0.75
-4.5625 6.4375 0.73749995
-1.6416668 6.4416666 0.75
-1.5750002 6.4583335 0.74166667
2.355 6.4449997 0.745
5.375 6.4749999 0.75
5.4250002 6.4499998 0.77499998
-4.7416668 6.5583339 0.74999994
-4.6750002 6.5583334 0.75833338
-1.5375 6.5375004 0.75
-1.4549999 6.5650001 0.74500006
2.375 6.5250001 0.72500002
2.4416666 6.5583339 0.74999994
5.2750001 6.5749998 0.72500002
5.3416667 6.5250006 0.75833338
-4.8374996 6.6500001 0.75
-4.7583332 6.6583338 0.74166667
-1.425 6.625 0.75
-1.35 6.6750002 0.75
2.4749999 6.625 0.75
2.55 6.6499996 0.75
2.625 6.6750002 0.75
5.1750002 6.6750002 0.75
5.2416668 6.6416664 0.75833338
-4.9375 6.7624998 0.73750007
-4.8499999 6.75 0.75
-1.325 6.7249999 0.75
-1.255 6.7650003 0.745
2.575 6.7249999 0.75
2.6500001 6.75 0.75
2.7249999 6.7750001 0.72500002
5.0749998 6.7750001 0.75
5.125 6.7249999 0.75
-5.0375004 6.8625002 0.75
-4.9749999 6.8249998 0.75
-1.225 6.8249998 0.75
-1.1583333 6.8583336 0.75
2.675 6.8249998 0.75
2.7464285 6.8535714 0.75357145
4.9749999 6.875 0.75
5.0250006 6.8416667 0.75833338
-5.1500001 6.9499998 0.72500002
-5.0749998 6.9583335 0.75833338
-1.225 6.9499998 0.72500002
-1.1464286 6.9535718 0.74642861
-1.0416667 6.9749999 0.75833338
2.7750001 6.9250002 0.75
2.845 6.9549994 0.745
4.875 6.9749999 0.75
4.9375 6.9375 0.76249993
-5.25 7.0500002 0.72500002
-5.1750002 7.0500002 0.72500002
-1.035 7.0449996 0.75500005
-0.97500002 7.0749998 0.75
2.875 7.0250001 0.75
2.9464285 7.0535722 0.74642861
3.0250001 7.0749998 0.75
-0.92500001 7.1500001 0.75
-0.875 7.1583338 0.75833338
2.9749999 7.125 0.72500002
3.0583334 7.1416664 0.75
3.125 7.1750002 0.75
-0.83750004 7.2375002 0.73750007
-0.77499998 7.2750001 0.75
3.1583335 7.2416668 0.75
3.2249999 7.2750001 0.75
-0.74166667 7.3249998 0.75833338
-0.65499997 7.3650002 0.745
3.2583332 7.3416667 0.75
3.325 7.375 0.75
-0.625 7.4250002 0.75
-0.55833334 7.458333 0.75000012
3.3583333 7.4416666 0.75000012
3.425 7.4749999 0.75
-0.52499998 7.5250001 0.75
-0.465 7.5549998 0.75500005
3.4583335 7.5416675 0.75000012
3.5250001 7.5749998 0.75
6.125 7.5749998 0.72500002
9.7749996 7.5749998 0.75
9.8416672 7.5749998 0.75833338
9.9250002 7.5749998 0.77499998
-0.42500001 7.625 0.75
-0.35833335 7.6583338 0.75
3.5550001 7.6349998 0.75500005
3.625 7.6750002 0.75
6.125 7.625 0.72500002
9.7416668 7.6583338 0.74166667
9.875 7.625 0.77499998
9.9500008 7.6500001 0.77499998
10.025 7.6750002 0.77499998
-0.32499999 7.7249999 0.75
-0.255 7.7650003 0.745
3.6583333 7.7416668 0.75000012
3.7249999 7.7750001 0.75
9.6550007 7.7550006 0.74500006
9.7250004 7.7249999 0.72500002
9.9750004 7.7249999 0.77499998
10.025 7.7249999 0.77499998
-0.22499999 7.8249998 0.75
-0.15500002 7.8650002 0.75500005
3.7583332 7.8416667 0.75
3.825 7.875 0.75
9.5583334 7.8583336 0.75
9.625 7.8249998 0.72500002
-0.14166668 7.9250007 0.74166667
-0.058333337 7.958333 0.75000012
3.8583333 7.9416666 0.74999994
3.925 7.9749999 0.72500002
9.458333 7.958333 0.75
9.5249996 7.9250002 0.77499998
-0.025 8.0249996 0.75
0.041666668 8.0583334 0.74999994
9.3583336 8.0583334 0.75
9.4250002 8.0249996 0.75
0.075000003 8.125 0.75
0.14500001 8.165 0.75500005
9.2583342 8.1583328 0.75
9.3249998 8.125 0.75
0.15833333 8.2250004 0.74166667
0.24166667 8.2583342 0.75000012
9.1583338 8.2583342 0.75
9.2250004 8.2250004 0.75
0.27500001 8.3249998 0.75
0.3416667 8.3583336 0.75
9.0649996 8.3550005 0.745
9.125 8.3249998 0.75
0.375 8.4416676 0.75833338
0.4375 8.4624996 0.76249993
8.9750004 8.4750004 0.72500002
9.0249996 8.4250002 0.72500002
0.47499999 8.5249996 0.75
0.54166669 8.5583344 0.75
4.6750002 8.5249996 0.72500002
8.8500004 8.5499992 0.77499998
0.57499999 8.625 0.75
0.64166665 8.6583338 0.75
4.6416669 8.6583328 0.72500008
8.7583332 8.6416664 0.75833338
8.8249998 8.625 0.77499998
0.67500001 8.7250004 0.72500002
0.745 8.7550001 0.745
0.82499999 8.7749996 0.77499998
4.6750002 8.7250004 0.72500002
4.746429 8.7535725 0.75357145
8.6583338 8.7749996 0.75833338
8.7250004 8.7250004 0.77499998
0.77499998 8.8249998 0.72500002
0.85500002 8.8450003 0.74500006
0.92500001 8.875 0.75
4.7750001 8.8249998 0.75
4.8416667 8.8583336 0.75
8.5583334 8.875 0.74166667
8.6374998 8.8375006 0.75
0.875 8.9250002 0.77499998
0.95833337 8.9416666 0.75
1.025 8.9750004 0.75
4.875 8.9250002 0.75
4.9450002 8.9649992 0.75500005
8.4624996 8.9625006 0.73749995
8.5249996 8.9416676 0.74166667
11.35 8.9750004 0.77499998
1.0583334 9.041667 0.74999994
1.125 9.0749998 0.75
4.9749999 9.0249996 0.75
5.0250006 9.0583334 0.74166667
8.375 9.0749998 0.75
8.4375 9.0375004 0.73750007
11.375 9.0499992 0.77499998
11.441668 9.0583334 0.77499998
1.1375 9.1374998 0.75
5.0749998 9.125 0.75
5.1374998 9.1624994 0.75
8.2749996 9.1750002 0.75
8.3416672 9.1416664 0.75833338
11.45 9.1499996 0.76249993
5.1750002 9.2250004 0.75
5.2249999 9.2583332 0.75833338
8.1750002 9.2749996 0.75
8.2416677 9.2416668 0.75
11.355 9.2649994 0.745
11.425 9.2250004 0.72500002
5.2750001 9.3249998 0.75
5.3416667 9.3583336 0.74999994
8.0583334 9.375 0.75833338
8.1416664 9.3416672 0.75
11.262501 9.3625002 0.75
11.325 9.3249998 0.75
0.97500002 9.4250002 0.72500002
5.375 9.4250002 0.75
5.4416666 9.458334 0.75000012
7.9749999 9.4500008 0.75
8.0499992 9.4250002 0.75
11.165 9.4550009 0.75500005
11.225001 9.4416676 0.75833338
5.4749999 9.5249996 0.75
5.541667 9.5583344 0.75
7.875 9.5749998 0.75
7.9375 9.5499992 0.73749995
11.058333 9.5583334 0.75
11.125 9.541666 0.74166667
0.82499999 9.6750002 0.77499998
5.5749998 9.625 0.75
5.6416664 9.6583328 0.75
10.975001 9.6583338 0.74166667
11.025 9.625 0.75
5.6750002 9.7250004 0.75
5.7450004 9.7550001 0.75499994
10.875 9.7749996 0.75
10.925001 9.7416668 0.74166667
1.925 9.875 0.75
5.7750001 9.8249998 0.75
5.8416667 9.8583336 0.75000012
5.9250002 9.875 0.77499998
10.775 9.875 0.75
10.841667 9.8416672 0.75
1.475 9.9250002 0.72500002
1.525 9.958334 0.74166667
1.875 9.9250002 0.72500002
1.965 9.9449997 0.74500006
2.0416667 9.9750004 0.75833338
5.875 9.9250002 0.75
5.9500003 9.9499998 0.75
6.0250001 9.9750004 0.77499998
10.675 9.9750004 0.75
10.741667 9.9416676 0.75
1.5650001 10.045 0.745
1.625 10.075 0.75
2.0583334 10.025 0.75833338
2.125 10.075 0.75
5.9749999 10.025 0.77499998
6.0549998 10.045 0.745
7.4250002 10.075 0.77499998
10.575 10.075 0.77499998
10.65 10.025 0.72500002
2.1625001 10.1375 0.75
2.2375 10.162499 0.76250005
6.0749998 10.125 0.75
6.145 10.155 0.75500005
7.3650002 10.155 0.75500005
7.4250002 10.125 0.75
10.475 10.175 0.77499998
10.549999 10.15 0.77499998
2.2625 10.2375 0.75
2.325 10.275 0.75
6.1750002 10.225 0.77499998
6.2416668 10.258334 0.75
7.2583332 10.258334 0.74999994
7.3249998 10.225 0.75
10.375 10.275 0.72500002
10.425001 10.258333 0.75833338
2.365 10.345 0.75500005
2.425 10.375 0.75
6.2750001 10.325 0.75
6.3464293 10.353573 0.74642867
7.1750002 10.35 0.75
7.2249999 10.325 0.75
10.275 10.375 0.75
10.345 10.345 0.75500005
2.4749999 10.441668 0.74166667
2.5250001 10.475 0.75
6.375 10.425 0.75
6.4464283 10.453572 0.74642861
6.5250001 10.475 0.77499998
7.1750002 10.425 0.72500002
10.25 10.462501 0.73749995
10.325 10.425 0.72500002
2.5583334 10.541667 0.74999994
2.625 10.575 0.75
6.4749999 10.525 0.75
6.5464292 10.553572 0.75357139
10.153572 10.553571 0.75357145
10.241667 10.541666 0.72500008
2.6583335 10.641666 0.75000012
2.7249999 10.675 0.75
6.5749998 10.625 0.75
6.6416664 10.658334 0.75
10.054999 10.655001 0.745
10.125 10.625 0.75
2.7583332 10.725001 0.75833338
2.825 10.775 0.75
6.6750002 10.725 0.75
6.7416663 10.758334 0.75
9.958334 10.758334 0.75
10.025 10.725 0.75
2.875 10.875 0.72500002
9.8550005 10.865001 0.74500006
9.9500008 10.825 0.72500002
9.7749996 10.958334 0.75833338
9.8249998 10.925 0.75
9.6583328 11.075 0.75833338
9.7375002 11.0375 0.73749995
9.5625 11.162499 0.75
9.625 11.141666 0.74166667
2.8499999 11.275 0.72500002
2.925 11.275 0.72500002
9.458334 11.258334 0.74999994
9.5374994 11.237501 0.73749995
2.875 11.325 0.72500002
2.9450002 11.355 0.745
9.3650007 11.355 0.74500006
9.4250002 11.325 0.75
2.9749999 11.425 0.77499998
3.0450001 11.464999 0.75500005
9.2749996 11.450001 0.75
9.3416672 11.425001 0.74166667
3.075 11.525 0.77499998
3.1416669 11.575 0.75833338
3.6416669 11.558333 0.75
9.165 11.555 0.745
9.2375002 11.5375 0.73750007
3.175 11.625 0.77499998
3.25 11.6375 0.73749995
3.675 11.625 0.75
3.7416668 11.658335 0.75
9.0650005 11.655 0.745
9.1374998 11.6375 0.73750007
3.2750001 11.725 0.75
3.325 11.725 0.75
3.7750001 11.725 0.75
3.8416667 11.758334 0.74999994
8.9750004 11.758334 0.75833338
9.0249996 11.725 0.75
3.875 11.825 0.75
3.9416666 11.858334 0.75000012
8.875 11.875 0.75
8.9250011 11.841667 0.74166667
3.9749999 11.925 0.75
4.041667 11.958334 0.75
8.7749996 11.975 0.75
8.8375006 11.9375 0.73750007
4.0749998 12.025 0.75
4.1349998 12.055 0.75500005
8.6750002 12.075 0.75
8.7416668 12.041667 0.75000012
4.1750002 12.125 0.75
4.2416668 12.158333 0.75
8.5749998 12.175 0.75
8.6416664 12.141666 0.75000012
4.2750001 12.225 0.75
4.3499999 12.25 0.75
8.4750004 12.275 0.75
8.541667 12.241667 0.74999994
4.375 12.325 0.75
4.4416666 12.358334 0.75
8.375 12.375 0.75
8.4416676 12.341667 0.75
4.4749999 12.425 0.72500002
4.5416665 12.458334 0.75
8.2749996 12.475 0.75
8.3416672 12.441668 0.75000012
4.5749998 12.525 0.77499998
4.6550002 12.545 0.745
4.7249999 12.575 0.75
8.1750002 12.575 0.75
8.2416677 12.541667 0.75
4.75 12.65 0.75
4.8249998 12.675 0.75
8.0749998 12.675 0.75
8.1416664 12.641666 0.75
4.7750001 12.725 0.77499998
4.8249998 12.741667 0.74166667
8.0749998 12.75 0.75
8.1374998 12.762501 0.73750007
8.1750002 12.85 0.75
8.2250004 12.858334 0.74166667
8.0749998 12.975 0.75
8.1416664 12.941668 0.75000012
7.9749999 13.075 0.75
8.041667 13.041667 0.75
7.8583336 13.175001 0.74166667
7.9416666 13.141666 0.75
7.7624998 13.262501 0.73749995
7.8449998 13.245 0.73499995
7.6625004 13.3625 0.75
7.7449999 13.345 0.73500007
7.8249998 13.325 0.72500002
4.1750002 13.475 0.72500002
7.5749998 13.458334 0.74166667
7.6416664 13.450001 0.74166673
7.7249999 13.425 0.72500002
4.0749998 13.575 0.72500002
4.1500001 13.525 0.72500002
7.4749999 13.575 0.75
7.5464292 13.546429 0.74642861
7.625 13.525 0.72500002
3.9749999 13.675 0.75
4.0349998 13.645 0.74500006
7.375 13.675 0.75
7.4464283 13.646429 0.74642861
7.5250001 13.625 0.72500002
3.875 13.775 0.72500002
3.9416664 13.741667 0.75
7.2750001 13.775 0.72500002
7.3499999 13.75 0.74166667
7.4250002 13.725 0.72500002
3.7750001 13.875 0.72500002
3.8416667 13.841667 0.75000012
7.1750002 13.875 0.75
7.2464285 13.84643 0.74642861
7.3416667 13.841667 0.72500008
3.675 13.975 0.72500002
3.7450001 13.945 0.745
6.7750001 13.975 0.75
6.8499999 13.975 0.75
7.0749998 13.975 0.72500002
7.1500001 13.95 0.72500002
7.2249999 13.925 0.72500002
3.575 14.075 0.75
3.6416669 14.041667 0.74999994
6.6750002 14.075 0.75
6.7464285 14.046429 0.74642861
6.8499999 14.025 0.75
6.9499998 14.049999 0.75
7.0499997 14.049999 0.72500002
7.125 14.025 0.72500002
3.4749999 14.175 0.75
3.5374999 14.1375 0.76250005
6.5749998 14.175 0.77499998
6.6464286 14.146429 0.74642855
6.7249999 14.125 0.72500002
6.9749999 14.125 0.72500002
7.0250001 14.125 0.72500002
3.375 14.275 0.75
3.4416666 14.241667 0.75
6.5583339 14.258334 0.74999994
6.625 14.225 0.72500002
3.2750001 14.375 0.75
3.3374999 14.337501 0.75
6.4583335 14.358334 0.75
6.5250001 14.325 0.75
3.175 14.475 0.75
3.2416666 14.441668 0.75
6.3583336 14.458334 0.74999994
6.4416671 14.425001 0.74166667
3.1375 14.55 0.75
6.2649999 14.555 0.75499994
6.3249998 14.541667 0.74166667
3.0500002 14.65 0.75
6.1750007 14.658333 0.75833338
6.2375002 14.6375 0.73749995
2.875 14.775 0.72500002
2.95 14.737501 0.76250005
3.0250001 14.725 0.72500002
6.0749998 14.775 0.75
6.1416664 14.741667 0.75000012
5.9749999 14.875 0.75
6.0449996 14.835001 0.74500006
5.875 14.975 0.75
5.9416666 14.941668 0.75
5.7750006 15.058333 0.74166667
5.8416672 15.041667 0.75
5.6750002 15.175 0.75
5.7416668 15.141668 0.75
5.5749998 15.275 0.75
5.6416664 15.241667 0.75000012
5.4749999 15.375 0.75
5.541667 15.341666 0.74999994
5.375 15.475 0.77499998
5.4416671 15.441668 0.75
5.2750001 15.575 0.75
5.3449998 15.535001 0.745
5.1750002 15.675 0.75
5.2450004 15.645 0.74500006
5.145 15.745 0.75500005
5.0500002 15.85 0.75
4.875 15.975 0.72500002
4.9499998 15.950001 0.75
4.8499999 16.049999 0.75
4.75 16.15 0.75
4.6500001 16.25 0.75
4.5583334 16.341667 0.74166667
4.4416666 16.475002 0.74166667
4.5250001 16.424999 0.75
4.375 16.525 0.75
4.2249999 16.674999 0.77499998
4.3249998 16.625 0.77499998
4.1750002 16.775 0.77499998
-0.77499998 -1.125 0.82499999
-2.075 0.25 0.82499999
-2.825 0.44999999 0.875
-2.7750001 0.44999999 0.875
-2.825 0.52499998 0.875
0.92500001 0.77499998 0.875
0.77499998 0.875 0.82499999
0.82499999 0.85000002 0.875
0.72500008 0.95833337 0.8416667
0.82499999 0.92500001 0.875
0.64999998 1.05 0.85000002
0.47499999 1.175 0.82499999
0.54999995 1.15 0.85000002
0.375 1.275 0.82499999
0.44642857 1.2464287 0.85357147
0.52499998 1.225 0.875
0.27500001 1.375 0.85000002
0.34999999 1.3499999 0.84999996
0.42500001 1.325 0.85000002
0.175 1.475 0.85000002
0.24642858 1.4464287 0.85357147
0.32499999 1.425 0.875
0.075000003 1.575 0.85000002
0.14166668 1.5416667 0.85000002
0.22499999 1.525 0.85000002
-0.025 1.675 0.82499999
0.050000004 1.6500001 0.8499999
-0.050000001 1.75 0.85000002
0.025 1.725 0.875
-0.22499999 1.875 0.85000002
-0.15357144 1.8464286 0.85357147
-0.075000003 1.825 0.85000002
-0.32499999 1.975 0.875
-0.24642858 1.9535717 0.85357147
-0.175 1.925 0.85000002
-0.42500001 2.075 0.875
-0.3464286 2.0535715 0.84642863
-0.27500001 2.0250001 0.85000002
-0.52499998 2.175 0.82499999
-0.44166666 2.1583335 0.85000008
-0.375 2.125 0.85000002
-0.54500002 2.2549999 0.85500002
-0.47499999 2.2249999 0.875
-0.72500002 2.375 0.82499999
-0.64642859 2.3535714 0.84642857
-0.57499999 2.325 0.875
-0.74166667 2.4583335 0.85000002
-0.67500001 2.425 0.85000002
-0.84166664 2.5583334 0.85000002
-0.77499998 2.5250001 0.85000002
1.025 2.5500002 0.82499999
-0.94166672 2.6583335 0.85000002
-0.875 2.625 0.85000002
-1.0416667 2.7583332 0.85000002
-0.97500002 2.7249999 0.85000002
-1.1416668 2.8583333 0.85000002
-1.075 2.825 0.85000002
-1.225 2.925 0.85000002
-1.165 2.9450002 0.84499997
-1.1416667 3.041667 0.85000008
-1.075 3.075 0.85000002
-1.0416667 3.1416669 0.85000002
-0.97500002 3.175 0.85000002
-0.94166672 3.2416666 0.85000002
-0.875 3.2750001 0.85000002
-0.8416667 3.3416669 0.85000002
-0.77499998 3.375 0.85000002
-0.74166673 3.4416666 0.85000002
-0.67500001 3.4749999 0.85000002
-0.64166665 3.5416667 0.85000002
-0.57499999 3.575 0.85000002
-0.54166669 3.6416664 0.85000008
-0.47499999 3.675 0.85000002
-0.44166669 3.7416668 0.85000002
-0.375 3.7750001 0.85000002
-0.34166667 3.8416667 0.85000002
-0.27500001 3.875 0.85000002
-0.27500001 3.925 0.82499999
0.875 4.0749998 0.82499999
0.95000005 4.0500002 0.82499999
0.77499998 4.1750002 0.85000002
0.84500009 4.145 0.85500002
0.92500001 4.125 0.85000002
2.675 4.1750002 0.82499999
2.7249999 4.1750002 0.82499999
0.74166667 4.2416668 0.85000002
2.575 4.2750001 0.82499999
2.6450002 4.2350001 0.85500002
2.7583332 4.2416668 0.85000002
2.8416667 4.2750006 0.8416667
0.67500007 4.3583336 0.8416667
2.5450001 4.3449998 0.84499997
2.8625 4.3374996 0.86250001
2.925 4.375 0.85000002
2.375 4.4749999 0.875
2.4450002 4.4449997 0.84499997
2.9549999 4.4350004 0.85500002
3.0250001 4.4749999 0.85000002
0.42500001 4.5749998 0.85000002
2.345 4.5349998 0.85500002
2.425 4.5250001 0.82499999
3.075 4.5250001 0.85000002
3.125 4.5749998 0.82499999
0.45833334 4.6416669 0.85000002
0.55500001 4.6550002 0.85500002
0.64499998 4.6650004 0.85500002
3.2750001 4.6750002 0.85000002
0.565 4.7450004 0.84499997
0.64999998 4.75 0.84999996
0.72500002 4.7750001 0.82499999
2.175 4.7750001 0.82499999
3.2750001 4.7249999 0.82499999
3.3500001 4.75 0.85000002
0.65499997 4.835 0.84500009
0.74642861 4.8535714 0.84642863
0.82499999 4.875 0.85000002
2.0500002 4.875 0.82499999
2.125 4.8249998 0.82499999
3.375 4.8249998 0.85000002
3.4464285 4.8535714 0.85357153
-3.125 4.9749999 0.85000002
0.77499998 4.9250002 0.85000002
0.85000002 4.9499998 0.84999996
0.92500001 4.9749999 0.82499999
1.9550002 4.9650002 0.84499997
2.0250001 4.9250002 0.85000002
3.4749999 4.9250002 0.85000002
3.5350003 4.9549999 0.85500002
-3.325 5.0749998 0.82499999
-3.2535715 5.0464287 0.85357147
-3.1416669 5.0250006 0.85833335
-3.0583334 5.0583334 0.85000002
0.875 5.0250001 0.85000002
0.94999999 5.0500002 0.85000002
1.025 5.0749998 0.875
1.8625 5.0625 0.83749998
1.925 5.0250001 0.85000002
-3.425 5.1750002 0.82499999
-3.3500001 5.1500006 0.85833335
-3.2750001 5.125 0.85000002
-3.0250001 5.125 0.85000002
-2.9583335 5.1583338 0.85000002
0.97500002 5.125 0.85000002
1.0464286 5.1535716 0.84642857
1.825 5.125 0.82499999
-3.4464288 5.253572 0.84642863
-3.375 5.2416668 0.85833335
-2.925 5.2249999 0.85000002
-2.8583333 5.2583332 0.85000002
1.075 5.2249999 0.85000002
1.145 5.2550001 0.85500002
1.225 5.2750001 0.85000002
-3.625 5.375 0.82499999
-3.5416667 5.3583336 0.85000002
-3.4749999 5.3249998 0.85000002
-2.825 5.3249998 0.85000002
-2.7535715 5.3535719 0.84642857
-2.675 5.375 0.82499999
1.175 5.3249998 0.85000002
1.2416667 5.3583336 0.85000002
-3.7249999 5.4749999 0.85000002
-3.6464286 5.4535718 0.85357147
-3.575 5.4250002 0.85000002
-2.7249999 5.4250002 0.82499999
-2.6500001 5.4500003 0.84166664
-2.575 5.4749999 0.85000002
1.275 5.4250002 0.85000002
1.3416667 5.4583335 0.85000002
-3.75 5.5500007 0.85000002
-3.675 5.5250001 0.85000002
-2.625 5.5250001 0.875
-2.5416667 5.541667 0.85000002
-2.4749999 5.5749998 0.85000002
1.375 5.541667 0.85833335
1.425 5.5499997 0.85000002
2.675 5.5749998 0.85000002
2.7249999 5.5749998 0.82499999
-3.8464289 5.6535711 0.85357147
-3.7750001 5.625 0.875
-2.4416666 5.6416664 0.85000002
-2.375 5.6750002 0.85000002
2.575 5.6750002 0.85000002
2.6416669 5.6499996 0.85000002
-3.9450002 5.7550001 0.84500009
-3.875 5.7249999 0.875
-2.3416667 5.7416668 0.85000002
-2.2750001 5.7750001 0.85000002
2.4749999 5.7750001 0.875
2.5350001 5.7450004 0.84499997
2.625 5.7249999 0.82499999
-4.0449996 5.8550005 0.85500002
-3.9749999 5.8249998 0.85000002
-2.2416668 5.8416667 0.85000008
-2.175 5.875 0.85000002
2.4549999 5.855 0.85500002
2.5250001 5.8249998 0.82499999
-4.1416669 5.9583335 0.85000002
-4.0749998 5.9250002 0.85000002
-2.1375 5.9375005 0.85000002
-2.075 5.9749999 0.85000002
2.3535717 5.9535718 0.84642863
2.425 5.9250002 0.875
-4.2416668 6.0583334 0.85000002
-4.1750002 6.0250001 0.85000002
-2.0416665 6.041667 0.85000002
-1.975 6.0749998 0.85000002
2.325 6.0250001 0.85000002
-4.3416667 6.1583338 0.85000002
-4.2750001 6.125 0.85000002
-1.9416666 6.1416664 0.85000008
-1.875 6.1750002 0.85000002
-4.4416671 6.2583332 0.85000002
-4.3625002 6.2374997 0.86250001
-1.8416667 6.2416668 0.85000002
-1.775 6.2750001 0.85000002
2.1450002 6.2550001 0.84499997
2.2249999 6.2750001 0.85000002
5.5500002 6.2750001 0.85000002
5.625 6.2249999 0.875
-4.5416665 6.3583336 0.85000002
-4.4583335 6.3249998 0.8416667
-1.7416667 6.3416672 0.85000008
-1.675 6.375 0.85000002
2.25 6.3500004 0.85000002
2.325 6.375 0.82499999
5.4749999 6.3583336 0.85833335
5.5250001 6.3249998 0.85000002
-4.6416664 6.458333 0.85000002
-4.5749998 6.4250002 0.85000002
-1.6416668 6.4416671 0.85000008
-1.575 6.4749999 0.85000002
2.2750001 6.4250002 0.875
2.345 6.4550004 0.85500002
2.425 6.4749999 0.875
5.375 6.4749999 0.85000002
5.4250002 6.4250002 0.85000002
-4.7350001 6.5549998 0.85500002
-4.6750002 6.5250001 0.85000002
-1.5450001 6.5349998 0.85500002
-1.45 6.5749998 0.85000002
2.375 6.5250001 0.82499999
2.4449999 6.5550003 0.84499997
5.2583332 6.5583334 0.85833335
5.3249998 6.5250001 0.85000002
-4.8249998 6.6500001 0.85000002
-4.7750006 6.6416664 0.8416667
-1.4375 6.6374998 0.85000002
-1.365 6.6550002 0.84499997
2.4749999 6.625 0.82499999
2.5416665 6.6583338 0.85000002
5.1750002 6.6750002 0.85000002
5.2249999 6.625 0.85000002
-4.9416666 6.7583332 0.8416667
-4.8583336 6.7416663 0.85000002
-1.325 6.7249999 0.85000002
-1.2625 6.7624998 0.85000002
2.575 6.7249999 0.85000002
2.6416669 6.7583342 0.85000002
5.0749998 6.7750001 0.85000002
5.125 6.7249999 0.85000002
-5.0349998 6.8550005 0.85500002
-4.9499998 6.8249998 0.85000002
-1.225 6.8249998 0.85000002
-1.175 6.8583336 0.85833335
2.675 6.8249998 0.85000002
2.75 6.8499999 0.85000002
2.825 6.875 0.85000002
4.9749999 6.875 0.875
5.0374999 6.8374996 0.83750004
-5.1500001 6.9749999 0.875
-5.0583334 6.9416671 0.8416667
-1.1375 6.9375 0.83749998
-1.0649999 6.9549994 0.84499997
2.7750001 6.9250002 0.85000002
2.8416667 6.9583335 0.85000008
4.8625002 6.9625001 0.85000002
4.9416666 6.9416671 0.85000008
-5.2249999 7.0749998 0.85000002
-5.1500001 7.0250001 0.85000002
-1.0350001 7.0449996 0.85500002
-0.97500002 7.0749998 0.85000002
2.875 7.0250001 0.85000002
2.9464288 7.0535722 0.84642863
3.0250001 7.0749998 0.85000002
-5.3249998 7.1750002 0.875
-5.2583332 7.1583338 0.85833335
-0.93500006 7.145 0.85500002
-0.875 7.1750002 0.85000002
3.0583334 7.1416664 0.85000002
3.125 7.1750002 0.85000002
-0.83749998 7.2375002 0.85000002
-0.77499998 7.2750001 0.85000002
3.1583335 7.2416668 0.85000002
3.2249999 7.2750001 0.85000002
-0.72500002 7.3249998 0.85000002
-0.67500001 7.375 0.85000002
3.2583332 7.3416667 0.85000002
3.325 7.375 0.85000002
-0.625 7.4250002 0.85000002
-0.54999995 7.4749999 0.85000002
3.3583336 7.4416671 0.85000008
3.425 7.4749999 0.85000002
-0.52499998 7.5250001 0.85000002
-0.46250001 7.5624995 0.83750004
3.4583335 7.541667 0.85000002
3.5250001 7.5749998 0.85000002
9.8500004 7.5749998 0.85000002
9.9250002 7.5749998 0.82499999
-0.42500001 7.625 0.85000002
-0.35833335 7.6583338 0.85000002
3.5583334 7.6416664 0.85000002
3.625 7.6750002 0.85000002
9.75 7.6499996 0.85000002
9.875 7.625 0.875
9.9500008 7.6499996 0.85000008
10.025 7.6750002 0.85000002
-0.32499999 7.7249999 0.85000002
-0.25833333 7.7583332 0.85000002
3.6583333 7.7416668 0.85000002
3.7249999 7.7750001 0.85000002
9.6549997 7.7550006 0.84499997
9.9750004 7.7249999 0.875
10.025 7.7249999 0.875
-0.22499999 7.8249998 0.85000002
-0.15833335 7.8583336 0.85000002
3.7583332 7.8416667 0.85000002
3.825 7.875 0.85000002
9.5583344 7.8583336 0.85000002
9.625 7.8249998 0.85000002
-0.125 7.9250002 0.85000002
-0.064999998 7.9550004 0.84499997
3.8583333 7.9416666 0.85000002
3.925 7.9749999 0.85000002
9.458334 7.9583335 0.85000002
9.5249996 7.9250002 0.85000002
-0.025 8.0249996 0.85000002
0.041666668 8.0583334 0.85000002
9.3583336 8.0583334 0.85000002
9.4250002 8.0249996 0.85000002
0.075000003 8.125 0.85000002
0.14166668 8.1583328 0.85000002
9.2583342 8.1583328 0.85000002
9.3249998 8.125 0.85000002
0.175 8.2250004 0.85000002
0.24166667 8.2583342 0.85000002
9.1583328 8.2583332 0.85000002
9.2250004 8.2250004 0.85000002
0.27500001 8.3249998 0.85000002
0.34166667 8.3583336 0.85000002
9.0499992 8.3500004 0.85000002
9.125 8.3249998 0.82499999
0.375 8.4250002 0.85000002
0.44166669 8.458334 0.85000002
8.9650011 8.4550009 0.84499997
0.47499999 8.5249996 0.85000002
0.54166669 8.5583334 0.85000002
8.8500004 8.5749998 0.82499999
8.9250002 8.5249996 0.82499999
0.57499999 8.625 0.85000002
0.64166665 8.6583328 0.85000008
8.7749996 8.6750002 0.82499999
8.8249998 8.625 0.82499999
0.67500001 8.7250004 0.85000002
0.75500005 8.7449999 0.84499997
4.7416668 8.7583332 0.85000002
8.6750002 8.7749996 0.875
8.7250004 8.7416668 0.85833335
0.85500002 8.8450003 0.85500002
0.92500001 8.875 0.85000002
4.7750001 8.8249998 0.85000002
4.8249998 8.8500004 0.85000002
8.5749998 8.8583336 0.85833335
8.625 8.8249998 0.875
0.95500004 8.9449997 0.85500002
1.025 8.9750004 0.85000002
4.875 8.9250002 0.85000002
4.9416666 8.958333 0.85000002
8.4750004 8.9750004 0.85000002
8.5374994 8.9375 0.85000002
11.375 8.9750004 0.875
1.0583334 9.041667 0.85000008
1.125 9.0749998 0.85000002
4.9749999 9.0249996 0.85000002
5.0349998 9.0550003 0.84499997
8.3500004 9.0749998 0.85000002
8.4416676 9.0249996 0.8416667
11.375 9.0499992 0.875
11.4375 9.0625 0.86250001
1.15 9.1374998 0.85000002
5.0749998 9.125 0.85000002
5.125 9.1750002 0.85000002
8.2749996 9.1750002 0.85000002
8.3374996 9.1374998 0.86250001
11.453571 9.1464291 0.84642863
5.1750002 9.2250004 0.85000002
5.25 9.2749996 0.85000002
8.1750002 9.2749996 0.85000002
8.2350006 9.2449999 0.85500002
11.365001 9.2550001 0.85500002
11.425 9.2250004 0.82499999
5.2750001 9.3249998 0.85000002
5.3416667 9.3583336 0.85000002
8.0583334 9.375 0.85833335
8.1416664 9.3416672 0.85000002
11.255 9.3550005 0.84499997
11.325 9.3249998 0.85000002
5.375 9.4250002 0.85000002
5.4416671 9.458334 0.85000002
7.9749999 9.4500008 0.875
8.041666 9.4416666 0.85000002
11.162499 9.4624996 0.85000002
11.225 9.4250002 0.85000002
5.4749999 9.5249996 0.85000002
5.541667 9.5583334 0.85000002
7.875 9.5749998 0.875
7.9583335 9.5249996 0.85833335
11.065001 9.5549994 0.84499997
11.125 9.5249996 0.85000002
5.5749998 9.625 0.85000002
5.6416664 9.6583338 0.85000002
10.955001 9.665 0.85500002
11.025 9.625 0.85000002
5.6750002 9.7250004 0.85000002
5.7416668 9.7583342 0.85000002
5.8249998 9.7749996 0.875
10.875 9.7583332 0.8416667
10.9375 9.7375002 0.86250001
1.925 9.875 0.85000002
5.7750001 9.8249998 0.85000002
5.8416667 9.8583336 0.85000002
7.6500001 9.8249998 0.82499999
10.775 9.875 0.85000002
10.841667 9.8416672 0.85000002
1.975 9.9500008 0.85000002
2.0250001 9.9750004 0.85000002
5.875 9.9250002 0.85000002
5.9416666 9.958334 0.85000002
10.675 9.9750004 0.85000002
10.75 9.9375 0.85000002
1.575 10.075 0.82499999
1.625 10.075 0.85000002
2.0583334 10.025 0.8416667
2.1416669 10.075 0.85833335
5.9749999 10.025 0.875
6.0450001 10.055 0.85500002
10.575 10.075 0.82499999
10.625 10.025 0.82499999
2.1625001 10.1375 0.83749998
2.2249999 10.15 0.85000002
6.0749998 10.125 0.85000002
6.145 10.155001 0.85500002
7.3550005 10.165 0.85500002
7.4250007 10.141666 0.85833335
10.549999 10.15 0.82499999
2.2625 10.2375 0.86250001
2.325 10.275 0.85000002
6.1750002 10.225 0.85000002
6.2416668 10.258334 0.85000002
7.2624998 10.2625 0.85000002
7.3249998 10.241667 0.8416667
10.375 10.275 0.875
10.458334 10.241667 0.85833335
2.3583333 10.341667 0.85000002
2.425 10.375 0.85000002
6.2750001 10.325 0.85000002
6.3450007 10.355 0.84499997
7.2249999 10.325 0.82499999
10.275 10.375 0.82499999
10.341667 10.341667 0.875
2.4625001 10.4375 0.85000002
2.5250001 10.475 0.85000002
6.375 10.425 0.85000002
6.4416666 10.458334 0.85000002
10.175 10.475 0.82499999
10.245 10.445001 0.84499997
2.5625 10.537499 0.85000002
2.625 10.575 0.85000002
6.4749999 10.525 0.85000002
6.541667 10.558333 0.85000002
10.15 10.55 0.83749998
10.225 10.541667 0.85833335
2.6550002 10.635 0.84499997
2.7249999 10.675 0.85000002
6.5749998 10.625 0.85000002
6.645 10.655 0.84499997
10.075 10.641666 0.85833335
10.15 10.625 0.875
2.7750001 10.725 0.85000002
2.825 10.775 0.85000002
6.6750002 10.725 0.85000002
6.7416663 10.758334 0.85000002
9.958334 10.775 0.8416667
10.025 10.725 0.85000002
2.875 10.875 0.875
9.875 10.858334 0.8416667
9.9250011 10.841667 0.85833335
9.7749996 10.958334 0.8416667
9.8249998 10.941668 0.85833335
9.6750011 11.058333 0.85833335
9.7375002 11.0375 0.86250001
9.5583334 11.175001 0.8416667
9.6374998 11.1375 0.86250001
9.4750004 11.258334 0.8416667
9.5374994 11.237499 0.86250001
2.9749999 11.375 0.82499999
9.3500004 11.375 0.85000002
9.4375 11.3375 0.86250001
3.075 11.475 0.82499999
9.2624998 11.462501 0.83750004
9.3416672 11.425001 0.85833335
3.125 11.549999 0.82499999
3.575 11.525 0.82499999
3.6416669 11.558333 0.85000002
9.1625004 11.5625 0.83750004
9.2375002 11.537499 0.86250001
3.675 11.625 0.85000002
3.7416668 11.658333 0.85000008
9.0549994 11.665 0.84499997
9.125 11.625 0.85000002
3.2750001 11.725 0.82499999
3.325 11.725 0.82499999
3.7750001 11.725 0.85000002
3.8416669 11.758333 0.85000002
8.9750004 11.758334 0.8416667
9.041667 11.741667 0.85000002
3.575 11.875 0.82499999
3.625 11.875 0.82499999
3.875 11.825 0.85000002
3.9416664 11.858334 0.85000008
8.875 11.875 0.85000002
8.9416676 11.841667 0.85000008
3.9749999 11.925 0.85000002
4.041667 11.958334 0.85000002
8.7749996 11.975 0.85000002
8.8416672 11.941668 0.85000002
4.0749998 12.025 0.85000002
4.1416669 12.058333 0.85000008
8.6750002 12.075 0.85000002
8.7416668 12.041666 0.85000002
8.8249998 12.025 0.875
4.1750002 12.125 0.85000002
4.2416668 12.158333 0.85000002
8.5749998 12.175 0.82499999
8.6416664 12.141666 0.85000002
4.2750001 12.225 0.82499999
4.3449998 12.255 0.85500002
8.4750004 12.275 0.85000002
8.5416679 12.241667 0.85000008
8.625 12.225 0.875
4.4499998 12.35 0.85000002
8.375 12.375 0.85000002
8.4416676 12.341667 0.85000002
8.5249996 12.325 0.875
4.4749999 12.425 0.82499999
4.5450001 12.455 0.84499997
4.625 12.475 0.875
8.2749996 12.475 0.85000002
8.3464298 12.44643 0.85357136
8.4250002 12.425 0.875
4.5749998 12.525 0.82499999
4.6550002 12.545001 0.85500002
4.7249999 12.575 0.82499999
8.1750002 12.575 0.85000002
8.2416668 12.541667 0.85000002
4.75 12.650001 0.85833335
4.8249998 12.675 0.82499999
8.0749998 12.675 0.85000002
8.1416664 12.641666 0.85000002
4.8249998 12.725 0.85000002
8.0749998 12.741667 0.85833335
8.1416664 12.775 0.8416667
8.1750002 12.85 0.85000002
8.2250004 12.85 0.875
8.0583334 12.975001 0.8416667
8.1499996 12.941668 0.85833335
7.9583335 13.075 0.8416667
8.0375004 13.037499 0.86250001
7.8625002 13.1625 0.83750004
7.9449997 13.145 0.86499995
7.7624998 13.262501 0.83750004
7.8449998 13.245 0.86499995
7.6625004 13.3625 0.83749998
7.7449999 13.345001 0.86499995
7.8249998 13.325 0.875
7.5749998 13.458334 0.8416667
7.645 13.445 0.86499995
7.7249999 13.425 0.875
4.0749998 13.575 0.85000002
4.125 13.558333 0.8416667
7.4749999 13.575 0.85000002
7.5500007 13.549999 0.85000002
7.625 13.525 0.875
3.9749999 13.675 0.85000002
4.0450001 13.635001 0.85500002
7.375 13.675 0.85000002
7.4449997 13.645 0.86499995
7.5250001 13.625 0.875
3.875 13.775 0.85000002
3.9375 13.737499 0.86250001
7.2750001 13.775 0.85000002
7.3464289 13.746428 0.85357136
7.4250002 13.725 0.875
3.7750001 13.875 0.85000002
3.8349998 13.845001 0.85500002
7.1750002 13.875 0.85000002
7.2464294 13.84643 0.85357147
7.3249998 13.825 0.875
3.675 13.975 0.85000002
3.7450001 13.935 0.85500002
6.7750001 13.975 0.875
6.8583336 13.975001 0.85833335
7.0749998 13.975 0.82499999
7.1499996 13.941669 0.85000008
7.2249999 13.925 0.875
3.575 14.075 0.875
3.6416669 14.041667 0.875
6.6750002 14.075 0.875
6.753572 14.053571 0.85357147
6.8499999 14.025 0.875
6.9500003 14.05 0.85000002
7.0500002 14.049999 0.85000002
7.125 14.025 0.875
3.4749999 14.175 0.875
3.5416667 14.141666 0.875
6.6535711 14.153573 0.85357147
6.7249999 14.125 0.85000002
6.9749999 14.125 0.875
7.0250001 14.125 0.875
3.375 14.275 0.875
3.425 14.25 0.875
6.5583339 14.258334 0.85000002
6.625 14.225 0.85000002
3.2750001 14.375 0.875
3.3499999 14.325 0.875
6.4583335 14.358333 0.85000002
6.5250001 14.325 0.85000002
3.175 14.475 0.875
3.25 14.450001 0.875
6.3650002 14.455001 0.84499997
6.4250002 14.425 0.85000002
3.075 14.575 0.875
3.125 14.525 0.875
6.2750006 14.558333 0.8416667
6.3249998 14.525 0.85000002
3.0500002 14.65 0.82499999
6.1750002 14.675 0.85000002
6.2350001 14.645 0.85500002
2.9499998 14.725 0.82499999
6.0749998 14.775 0.85000002
6.1416664 14.741668 0.85000008
2.875 14.825 0.875
5.9749999 14.875 0.85000002
6.041667 14.841667 0.85000002
5.875 14.975 0.85000002
5.9416671 14.941668 0.85000008
5.7750001 15.075 0.85000002
5.8416667 15.041667 0.85000002
5.6750002 15.175 0.85000002
5.7350001 15.145 0.84499997
5.5749998 15.275 0.85000002
5.6416664 15.241667 0.85000002
5.4749999 15.375 0.85000002
5.541667 15.341666 0.85000002
5.375 15.475 0.875
5.4416671 15.441669 0.85000002
5.2750001 15.575 0.875
5.3416672 15.541666 0.85000008
5.1750002 15.675 0.875
5.2450004 15.645 0.85500002
5.1500001 15.75 0.85000002
5.2249999 15.725 0.82499999
5.0500002 15.85 0.85000002
5.125 15.825 0.82499999
