# .PCD v0.7 - Point Cloud Data file format
VERSION 0.7
FIELDS x y z
SIZE 4 4 4
TYPE F F F
COUNT 1 1 1
WIDTH 1621
HEIGHT 1
VIEWPOINT 0 0 0 1 0 0 0
POINTS 1621
DATA ascii
-0.625 5.0749998 0.025
-0.48750004 5.0208335 0.025000004
0.77285725 4.9114285 0.17000003
0.95588225 5.0323529 0.15882351
1.9572581 4.9669356 0.1524193
2.125 4.8250003 0.15000001
3.4480774 4.8788462 0.13782051
-6.9416666 5.3416667 0.20833334
-6.7845244 5.2059531 0.18452381
-3.625 5.375 0.19999999
-3.4550002 5.2466679 0.18916669
-3.125 5.125 0.14500001
-2.8457787 5.2483778 0.17694804
-2.6678572 5.3678575 0.14642857
-2.2416666 5.375 0.025000002
-1.9 5.3249998 0.025
-1.375 5.125 0.22499999
-0.94166672 5.3583336 0.025000002
-0.73189664 5.2732754 0.024999995
-0.51710516 5.2381577 0.025000004
1.093868 5.2117925 0.17783025
1.2673078 5.3384619 0.13076924
1.707558 5.2249999 0.16104655
1.825 5.125 0.14999999
-7.041667 5.4583335 0.24166667
-3.925 5.6750002 0.2
-3.7513161 5.5381584 0.18552633
-3.575 5.4250002 0.19999999
-2.7249999 5.4250002 0.19999999
-2.5386839 5.5360522 0.13921052
-2.3033335 5.5500002 0.05333332
-1.2583333 5.6416664 0.025000002
-1.0362903 5.5669355 0.024999993
-0.77314818 5.521297 0.024999997
-0.54999995 5.4499998 0.025
1.125 5.6125002 0.025
1.3600878 5.4995618 0.13377196
1.6083333 5.5083332 0.025000002
1.85 5.5500002 0.025
2.625 5.6198273 0.16637933
2.7249999 5.5250001 0.125
-4.0555549 5.8518524 0.1842593
-2.4416666 5.7249999 0.091666669
-2.238281 5.8320322 0.16484375
-2.0600002 5.9649997 0.15500002
-1.3225001 5.8074994 0.025000004
-1.0654762 5.791667 0.025000002
-0.875 5.7249999 0.025
0.8416667 5.9416671 0.025000002
0.97500002 5.895 0.025000004
2.3323529 5.9352956 0.16029412
2.473649 5.7979722 0.14932433
-4.336607 6.1535711 0.18839283
-4.1750002 6.0250001 0.1
-2.125 6.0250001 0.27500001
-1.9283332 6.1566672 0.16083339
-1.7562499 6.2375002 0.13125001
0.54166663 6.2416668 0.025000002
0.75 6.1516671 0.024999995
2.075 6.1749997 0.19375001
2.1740909 6.1495442 0.16500001
-4.6152163 6.4445658 0.1706522
-4.4749999 6.3250003 0.175
-1.825 6.3249998 0.1
-1.6292859 6.436429 0.16499996
-1.4593751 6.5593748 0.16562501
-0.57499999 6.5250001 0.075000003
0.25833333 6.5583334 0.025000002
0.4669354 6.4637094 0.024999993
0.7054348 6.4315214 0.025
2.2964284 6.4168382 0.16377552
2.4464283 6.5464277 0.14166668
-4.9301276 6.7570505 0.19038461
-4.7649999 6.625 0.175
-1.525 6.6500001 0.075000003
-1.3119861 6.73733 0.15102741
-1.0779411 6.8176465 0.072058819
-0.72171044 6.8026323 0.14999999
-0.55119038 6.8178568 0.16785716
-0.041666668 6.8583336 0.025000002
0.16833335 6.7683339 0.024999995
0.43749997 6.7375011 0.024999993
0.69166672 6.7416668 0.025000002
1.125 6.625 0.025
2.075 6.8249998 0.025
2.2531252 6.7281246 0.025000004
2.575834 6.7200017 0.13833337
2.741667 6.8483334 0.17500001
-5.2035713 7.0678577 0.23928572
-5.0625 6.9625001 0.2375
-1.225 6.9250002 0.125
-1.0383335 7.0125008 0.16000003
-0.83445954 7.0087852 0.1506757
-0.38095245 7.0964293 0.17619051
-0.16626985 7.1059537 0.11865082
0.13425927 7.0194449 0.024999997
0.35499999 6.9549994 0.025
1.7375 7.1625004 0.025
1.9223683 7.0855265 0.025000004
2.8909576 7.0079789 0.17606385
3.0659094 7.1522741 0.18181817
4.9000001 6.9625001 0.26249999
-5.2750001 7.2249999 0.175
-0.70666653 7.3433342 0.19833337
-0.52499998 7.3500004 0.2
-0.077500001 7.3425002 0.10750002
0.075000003 7.4749994 0.15000001
0.77499998 7.4250002 0.175
0.92500001 7.3249998 0.22499999
1.4583334 7.4583335 0.025000002
1.6669357 7.363709 0.024999993
1.9109999 7.3489995 0.024999997
2.1500001 7.3499999 0.025
3.2050004 7.286428 0.18071426
3.3666673 7.4354181 0.17916667
-0.083620705 7.5681009 0.13706894
0.19566666 7.6249995 0.14433336
0.52499998 7.5250006 0.075000003
1.1583333 7.7583332 0.025000002
1.3683331 7.6683345 0.024999995
1.6464287 7.6464305 0.024999991
1.875 7.5750008 0.025000004
3.5156252 7.593749 0.17812496
3.6625004 7.7303572 0.1607143
9.7612495 7.6674991 0.18125001
9.9650021 7.6850009 0.1875
-0.03833333 8.0050011 0.13833335
0.1267857 7.9249997 0.12857144
0.44365665 7.8921642 0.1593283
0.625 8.0187492 0.24374999
1.0732758 7.9681015 0.024999995
1.3470587 7.9426465 0.024999993
1.5821427 7.8964286 0.025000004
3.5050004 7.9350009 0.025000004
3.7943175 7.90341 0.13636366
3.9450002 7.9549994 0.175
9.4635429 7.9604163 0.19166671
9.625 7.8250003 0.175
10.642857 8.0160713 0.13571426
0.53750002 8.2624998 0.16249999
0.66590911 8.2749996 0.079545446
1.0791667 8.1750002 0.025000004
1.25 8.1750002 0.025
2.9749999 8.375 0.025
3.1716669 8.3216667 0.025000006
3.3999999 8.25 0.025
3.7750003 8.1964293 0.025000002
4.355 8.3650007 0.025
8.9750004 8.375 0.075000003
9.1646233 8.2749996 0.17028305
9.3694439 8.1805553 0.11388889
10.743421 8.15658 0.1355263
10.926352 8.29527 0.14121623
0.50217396 8.5217409 0.15543482
0.65714288 8.625001 0.1589286
1.175 8.4750004 0.025
1.325 8.5749998 0.025
1.525 8.4250002 0.025
2.2249999 8.5749998 0.22499999
2.675 8.6750002 0.025
2.8788462 8.5788469 0.024999999
3.0916669 8.5392866 0.025000002
3.425 8.625 0.025000002
4.3583336 8.4972229 0.025000004
4.635715 8.6232157 0.11250003
8.8966217 8.5236492 0.19391893
9.1429987 8.5070009 0.052999988
9.4562492 8.6437492 0.025000002
9.7535725 8.632143 0.025000002
10 8.5500002 0.025
11.065 8.4250002 0.13499999
11.145 8.4650011 0.205
0.57499999 8.7250004 0.075000003
0.8062501 8.7890625 0.18750001
0.99256754 8.916893 0.12905411
1.3625 8.9250002 0.025000004
1.7250001 8.7250004 0.075000003
1.825 8.7250004 0.1
2.375 8.9750004 0.025
2.578846 8.8788481 0.024999999
2.8499997 8.8500013 0.024999991
3.0750003 8.8000002 0.025000004
4.1416669 8.875 0.025000002
4.7353449 8.7594833 0.18017243
4.8771739 8.9032631 0.19891304
8.5605774 8.8923082 0.17596152
8.7250004 8.7449999 0.22500001
9.4788465 8.8211546 0.024999999
9.7455883 8.8573532 0.024999993
9.9875011 8.8791676 0.025000004
10.275 8.8249998 0.025
11.375 8.9750004 0.175
1.0820177 9.1188593 0.13552636
1.2886364 9.0704546 0.025000004
2.2849998 9.177 0.024999997
2.5401518 9.140152 0.024999993
2.784091 9.079546 0.025000004
4.0250001 9.2000008 0.025
5.0370688 9.0939636 0.15948276
5.1809535 9.2119045 0.14404763
8.2937508 9.1749992 0.17
8.4416685 9.0555544 0.15000002
9.5749998 9.0249996 0.025
9.7788458 9.1211538 0.024999999
10.047059 9.1573524 0.024999993
10.282692 9.1826935 0.025000004
10.605 9.1350002 0.025
11.35909 9.1318178 0.20227273
11.439476 9.1421061 0.16052632
1.0292555 9.4526587 0.16648938
1.9875001 9.4899988 0.025000004
2.2416668 9.3983345 0.025000006
2.4849999 9.335 0.025
4.7350001 9.5349989 0.025
4.9607143 9.4107141 0.025000002
5.2923908 9.4032602 0.11630439
5.4931827 9.5159101 0.17348483
7.9935703 9.4921436 0.20357147
8.1399994 9.3450003 0.205
9.875 9.3249998 0.025
10.078847 9.421154 0.024999999
10.317592 9.4527779 0.024999997
11.008332 9.5333328 0.13055556
11.214742 9.412179 0.18012823
1.175 9.6499996 0.27500001
1.3673075 9.8006411 0.19038464
1.65 9.75 0.15000001
1.9392858 9.8214293 0.085714288
4.4113636 9.829546 0.025000004
4.5788465 9.7711544 0.025000004
5.3000002 9.6583338 0.025000002
5.6104174 9.6729174 0.17083335
5.7882352 9.7985287 0.17794116
7.7019234 9.7980766 0.20320515
7.863636 9.6636372 0.17727274
10.175 9.625 0.025
10.34643 9.6857147 0.025000004
10.666666 9.8041668 0.054166656
10.917311 9.7413483 0.16634622
1.4750001 9.9375 0.16249999
1.6404928 10.01021 0.15176055
1.9484373 9.9695282 0.15312493
2.1921051 10.102632 0.13421056
2.9499998 10.175 0.050000001
3.0875001 10.162499 0.075000003
4.1083336 10.108333 0.025000006
4.3441176 10.042646 0.024999993
4.6083336 10.013889 0.025000002
4.8999996 10.15 0.025
5.9374995 9.9625006 0.1875
6.1276312 10.119738 0.16578948
7.4159083 10.122728 0.19090909
7.565908 9.9636374 0.18409093
10.475 10.175 0.25
10.650805 10.020967 0.15564512
10.825 9.9250002 0.1
2.3220589 10.288235 0.17794119
2.5187504 10.394789 0.10208334
2.7249999 10.35 0.025
3.789706 10.413235 0.025000004
4.0464292 10.346431 0.024999991
4.3184781 10.327174 0.025
4.686111 10.352778 0.025000002
4.8249998 10.325 0.025
6.2150002 10.307501 0.11250003
6.3877902 10.401744 0.14709306
7.1039462 10.410526 0.16184211
7.3566327 10.261735 0.1617347
7.5562506 10.275001 0.10624999
7.8249998 10.475 0.025
9.875 10.35 0.025
9.9900007 10.429999 0.030000005
10.32866 10.371342 0.1945122
10.525 10.225 0.22499999
-1.1 10.75 0.27500001
2.5993247 10.587161 0.16824324
2.7644739 10.732895 0.20394737
3.4916666 10.691667 0.025000002
3.75 10.650001 0.024999991
4.0111108 10.613889 0.025000004
4.3500004 10.65 0.025000004
4.625 10.575001 0.025000002
5.9583335 10.558333 0.025000002
6.1416674 10.550001 0.025000002
6.5062499 10.560415 0.17083335
6.716464 10.705485 0.2054878
6.9931817 10.547728 0.22499999
7.3812499 10.612501 0.025000002
7.645 10.715 0.025000004
7.9499998 10.689286 0.025000004
8.4750004 10.725 0.025
10.053663 10.644336 0.13499993
10.225 10.525001 0.16500001
-1.1416667 10.858334 0.20833334
2.6666667 11.049999 0.24166667
2.7750001 11.008334 0.22500001
3.2583332 10.858334 0.025000002
3.4694448 10.886112 0.025000004
3.7250004 10.902272 0.025000004
4.0541668 10.975001 0.025000004
4.2249999 10.95 0.025
5.5805554 11.011109 0.025000004
5.7750006 11.008334 0.025000002
6.7849998 10.875 0.18499999
7.708334 10.891667 0.025000006
7.9500008 10.95 0.024999993
8.2297621 10.989285 0.025000002
8.5649996 11.025001 0.025
8.75 10.950001 0.025
9.7617922 10.958965 0.17028306
9.9250002 10.825 0.2
2.675 11.125 0.22500001
2.8642306 11.246537 0.16423072
3.0250001 11.360714 0.18928573
3.575 11.275 0.025
3.675 11.262501 0.025000002
4.0250001 11.125 0.025
5.3111115 11.286112 0.025000004
5.5250006 11.237069 0.024999995
5.8964281 11.296429 0.025000002
6.0500002 11.25 0.025
6.4250002 11.125 0.025
6.7750001 11.125 0.025
7.0861111 11.297223 0.025000002
7.2249999 11.299999 0.025
8.0249996 11.175 0.025000004
8.2558832 11.242644 0.024999993
8.5062504 11.271874 0.025000004
8.75 11.299999 0.025
9.4671078 11.255701 0.1635965
9.625 11.125 0.15000001
2.9749999 11.425 0.050000001
3.1546061 11.543424 0.14736839
3.4706137 11.618859 0.14342107
3.7133722 11.611049 0.14476745
4.02 11.56 0.030000005
4.2416668 11.475001 0.058333337
5.0083332 11.608334 0.025000006
5.25 11.549999 0.024999991
5.4916668 11.504169 0.025000004
5.8613639 11.525001 0.025000004
7.0500002 11.4875 0.025
8.3416672 11.458334 0.025000002
8.4903851 11.490386 0.025000004
9.1571455 11.563389 0.1651786
9.3250008 11.425001 0.15000001
3.2750001 11.725 0.22499999
3.3600004 11.724999 0.11000001
3.8263886 11.777779 0.14444444
3.983824 11.895589 0.16911767
4.7583337 11.866667 0.025000002
4.9401522 11.840151 0.024999993
5.227778 11.822222 0.025000004
5.5062499 11.862499 0.025000002
6.8499999 11.85 0.025
7.9083338 11.958334 0.025000002
8.6750002 11.75 0.025
8.8819427 11.861806 0.14375003
9.04 11.744999 0.17
4.1325002 12.064998 0.19749999
4.2910709 12.216069 0.19821428
4.9583335 12.116667 0.025000002
5.2249999 12.175 0.025
7.6785717 12.19643 0.025000004
7.9173083 12.10577 0.025000004
8.125 12.225 0.025000002
8.5740194 12.175 0.13774511
8.7455883 12.039704 0.16029415
4.427 12.364999 0.17899999
4.5975809 12.510484 0.19112901
7.3805552 12.480556 0.025000004
7.5687504 12.36875 0.025000002
8.2587852 12.468915 0.12567565
8.4425011 12.362499 0.14750002
4.7406249 12.646876 0.17812501
4.8350005 12.741668 0.18500002
5.1999998 12.625 0.025
6.875 12.875 0.025
7.078846 12.778846 0.024999999
7.295454 12.754546 0.025
8.0678558 12.698215 0.14642857
8.1473684 12.781579 0.15394737
5.0749998 13.175 0.025
5.2964282 13.160716 0.025000002
5.5062499 13.118749 0.025000002
5.7249999 13.075 0.025
6.5749998 13.175 0.025
6.7788463 13.078849 0.024999999
7.0362902 13.036289 0.024999993
7.2416668 13.008334 0.025000002
7.9692879 13.066428 0.15714285
8.1333342 12.941669 0.125
4.1624999 13.45625 0.21875001
4.2416668 13.391667 0.22500001
4.7750001 13.275 0.025
5.0161762 13.345589 0.025000004
5.2387934 13.338794 0.024999995
5.4583335 13.258333 0.025000002
6.2750001 13.475 0.025
6.4788461 13.378844 0.024999999
6.7350006 13.335001 0.024999995
6.9916668 13.291667 0.025000002
7.6743121 13.36678 0.14897262
7.8374991 13.237501 0.1375
3.875 13.775 0.22500001
4.0328941 13.61184 0.22500001
5.0749998 13.525 0.025
5.1916666 13.541667 0.025000002
6.1644735 13.659212 0.025000004
6.4375 13.566666 0.025000004
6.6750002 13.525 0.025
7.3782792 13.683198 0.14467216
7.5449991 13.549998 0.14750002
3.575 14.054999 0.235
3.7440481 13.910714 0.22500002
5.6750002 14.075 0.025
5.9416666 13.997223 0.025000002
6.041667 13.875 0.025000002
6.7680788 13.99807 0.13653848
7.0559845 13.988384 0.15246479
7.2488093 13.853571 0.12976192
3.2750003 14.375 0.22499999
3.4250002 14.225 0.22499999
5.833333 14.141666 0.025000002
6.5175533 14.293086 0.14946809
6.6423917 14.157609 0.14021741
6.9749999 14.125 0.050000001
2.9749999 14.675 0.175
3.1575 14.530001 0.22499998
6.2142863 14.611905 0.1511905
6.3637094 14.468549 0.14758064
2.9499998 14.725 0.175
5.9219708 14.929545 0.14924242
6.0736094 14.787503 0.14722224
5.6365395 15.215384 0.175
5.790277 15.076389 0.16805559
5.3386359 15.531817 0.16363637
5.4879627 15.380555 0.1787037
5.0383334 15.844999 0.15500003
5.2019234 15.686538 0.15769231
4.7527781 16.141668 0.18055555
4.8903852 15.996154 0.17115384
4.4749999 16.435001 0.21500002
4.6071429 16.307142 0.19642858
4.1750002 16.758335 0.24166667
4.3375006 16.587502 0.23333333
4.0449996 16.875 0.26500002
-0.625 -1.225 0.45000002
-0.57499999 -1.245 0.42500001
-0.92500007 -0.92500007 0.44999999
-0.75730783 -1.0673079 0.4503848
-1.225 -0.625 0.42500001
-1.0649999 -0.75681818 0.43863651
-1.3542856 -0.44714281 0.43857145
-1.6386365 -0.13863638 0.45000011
-1.4750001 -0.27500001 0.44999999
-1.9386364 0.16136362 0.44999999
-1.775 0.025000002 0.44999999
-2.2386363 0.46136364 0.45000008
-2.075 0.32500002 0.45000002
1.1180233 0.5098837 0.4505814
1.2464286 0.38928574 0.44642854
-2.5200007 0.76285696 0.44357148
-2.375 0.625 0.45000002
0.83152175 0.82065225 0.41847828
0.97635114 0.6858108 0.45067576
-2.8138883 1.0861112 0.45000005
-2.6583331 0.94166672 0.44999996
0.52785718 1.1292857 0.42928573
0.67894733 0.99210501 0.43026316
-3.113889 1.3861109 0.45000002
-2.9583328 1.2416668 0.45000002
0.22785719 1.4292854 0.43357143
0.38475609 1.2908539 0.44817066
-3.4138901 1.6861112 0.45000002
-3.2583334 1.5416666 0.45000002
-0.066379316 1.7353448 0.44913796
0.084090911 1.5863642 0.44772714
-3.7052817 1.996127 0.44894367
-3.5468745 1.8593752 0.44531241
-0.36499998 2.0350001 0.44999999
-0.2107143 1.8892857 0.44999999
-3.996428 2.2928569 0.434524
-3.8410716 2.1482141 0.43928576
-0.66071433 2.3321433 0.44285712
-0.51104653 2.19593 0.43662789
-4.2849998 2.6005554 0.4494445
-4.1350002 2.4649997 0.44999996
-0.95948273 2.6405175 0.44396555
-0.81250012 2.5083332 0.45000017
1.0833335 2.6083336 0.45357141
-4.5854654 2.9110465 0.45290694
-4.4350004 2.7650001 0.44999999
-1.2250001 2.9279408 0.44264701
-1.1051723 2.8068964 0.46120688
1.1678572 2.7250001 0.43214288
1.3262193 2.8371952 0.40182927
1.525 2.9750001 0.42500001
-4.8770838 3.21875 0.43958336
-4.7156253 3.0718749 0.44062498
-1.2472222 3.0361111 0.43611109
-1.0468749 3.1468751 0.45468754
-0.875 3.2750001 0.44999999
1.628922 3.1093137 0.45147064
-5.1838236 3.510294 0.43970585
-5.0309987 3.371001 0.44499996
-0.73863637 3.4386363 0.44999999
-0.57500005 3.5750003 0.45000002
-5.488236 3.8382354 0.45000008
-5.3309999 3.691 0.45099995
-0.43863636 3.7386372 0.45000008
-0.23269235 3.8634615 0.41730773
-5.7703485 4.1191859 0.44709307
-5.6177092 3.9802091 0.44374999
-0.23928574 3.9249997 0.46428573
0.8196429 4.132143 0.45535716
0.95000017 4.020834 0.47500002
2.6583333 4.1750002 0.42499995
2.7250001 4.1750002 0.44999999
-6.071969 4.4265161 0.43712121
-5.9136376 4.2863636 0.44318193
0.52045459 4.431818 0.35681814
0.69047618 4.3071423 0.42976189
2.3666668 4.4750004 0.46666667
2.5313835 4.3345747 0.4473404
2.8586059 4.3192625 0.4504098
3.0333335 4.458333 0.4666667
-6.3784475 4.7301731 0.44051719
-6.2120972 4.5766129 0.45241928
0.50375009 4.6350007 0.4281252
0.64999998 4.7180557 0.44444451
2.075 4.7750001 0.52499998
2.3096156 4.5788469 0.4519231
3.1740193 4.6034303 0.42794114
3.3416669 4.7583337 0.44999996
-6.6620383 5.0231481 0.43425924
-6.5217733 4.8830643 0.43467736
-3.3250003 5.0750003 0.44999999
-3.1458323 5.020834 0.44444451
-2.9750001 5.0750003 0.44999999
0.7734043 4.9212766 0.4446809
0.95468742 5.0421863 0.44531244
1.9558333 4.9650002 0.45166674
2.125 4.8249998 0.4375
3.4633725 4.8912792 0.44709295
5.0583334 4.875 0.47499999
-6.9687495 5.3406253 0.44062498
-6.8049989 5.1964293 0.44642863
-3.625 5.375 0.45000002
-3.45538 5.2458839 0.45158237
-3.1187499 5.125 0.43125001
-2.8507891 5.2486858 0.44973704
-2.675 5.375 0.45000002
1.0847223 5.2034736 0.44652781
1.2583334 5.3416657 0.46333337
1.7166662 5.2180552 0.42916664
1.825 5.125 0.44999999
-7.0607152 5.4535718 0.48928574
-3.925 5.6750002 0.44999999
-3.7524402 5.5439029 0.45548776
-3.575 5.4250002 0.42500001
-2.7250001 5.4250002 0.42500001
-2.5434933 5.5421224 0.44828781
-2.375 5.6750002 0.44999999
1.3721696 5.4985847 0.4504717
2.634259 5.6287036 0.46018511
2.7250001 5.5583334 0.43333337
-4.2249999 5.9749999 0.47499999
-4.0471425 5.8485713 0.44857138
-3.875 5.7249999 0.42500001
-2.2445312 5.8320312 0.45000005
-2.075 5.9749999 0.44999999
2.3390625 5.9375014 0.44218743
2.4812505 5.7962489 0.45375004
-4.338768 6.1605072 0.44818836
-4.1750002 6.0250006 0.45000002
-2.125 6.0250001 0.32499999
-1.9386367 6.1386366 0.45000011
-1.7678572 6.2750006 0.43214288
2.0625005 6.1833334 0.40833336
2.1799302 6.1461258 0.44190145
-4.6365385 6.4650011 0.45423082
-4.4750004 6.3250003 0.45000002
-1.6315789 6.4276295 0.44605264
-1.4583335 6.5583329 0.45000002
2.2971153 6.4201922 0.4519231
2.4416664 6.5583329 0.44999996
5.2750001 6.5749998 0.54999995
-4.9372444 6.7668366 0.45255104
-4.7678576 6.6392856 0.48928574
-1.3070894 6.7346997 0.44440311
-1.171154 6.851923 0.44807696
-0.74861109 6.8041663 0.43935177
-0.53071427 6.7907133 0.42500001
2.5861108 6.7138877 0.45000005
2.7416663 6.8583326 0.45000002
5.0275002 6.8325 0.47
5.1704545 6.6886368 0.52499998
-5.190217 7.0380449 0.46847826
-5.0600009 6.9399996 0.42500001
-1.0400794 7.0043635 0.44880953
-0.85192311 7.0365396 0.4384616
-0.40053192 7.0494676 0.42180869
-0.18160379 7.1051903 0.44103789
2.8908329 7.0041656 0.45000008
3.0653226 7.1427422 0.43306452
4.898334 6.961668 0.46833336
-0.66184223 7.375 0.40921047
-0.52499998 7.2750001 0.46944439
-0.044565216 7.3445663 0.45326093
0.090789467 7.4723678 0.43815789
3.2107146 7.2892852 0.44999987
3.3660712 7.4339299 0.4464286
-0.074999988 7.5340919 0.38863635
0.21715681 7.6181374 0.42205873
0.32499999 7.6999998 0.57499999
3.5128043 7.5908527 0.45060965
3.6650002 7.7350001 0.45000002
6.0500002 7.5999999 0.52499998
9.7553596 7.6696448 0.4491072
9.9650011 7.6850014 0.45000005
-0.025000004 8.0050001 0.42999998
0.13796298 7.9342566 0.42499998
0.45330188 7.8674541 0.41084912
0.63804352 8.0076084 0.41413042
3.8107138 7.8892851 0.44999996
3.9464288 7.9749999 0.43214288
9.4615107 7.9615088 0.45039696
9.625 7.8250003 0.44999999
10.639815 8.0083342 0.40462968
-3.5107145 8.3178577 0.51071429
0.52499998 8.2749996 0.42499998
0.625 8.125 0.45833334
9.1606064 8.2651529 0.44924256
9.3250008 8.132143 0.43214285
10.757144 8.1500006 0.39999998
10.928751 8.281251 0.41374999
0.50058132 8.5226736 0.44244179
0.66923088 8.6500006 0.4576923
4.636364 8.6386375 0.45000008
8.8825483 8.5457554 0.42783022
9.0250006 8.4250002 0.45000002
11.075 8.4250011 0.42500001
11.143749 8.4562502 0.41249999
0.81071454 8.7892847 0.44999999
0.96500003 8.9350023 0.45000002
4.7264295 8.7621422 0.43499991
4.88375 8.9037495 0.44374999
8.5788479 8.8780766 0.44730774
8.7340908 8.7431822 0.42499998
11.325 8.9750004 0.57499999
1.0826925 9.1111546 0.438077
5.0370688 9.0698252 0.44568959
5.1866283 9.2110453 0.45639539
8.2884636 9.1846151 0.45384619
8.4416676 9.041666 0.45000002
11.359376 9.1531229 0.45156249
11.442647 9.1500015 0.45147049
1.0411539 9.4765377 0.42423078
5.335 9.3649998 0.44999996
5.4892855 9.5107145 0.45000008
7.994791 9.4802094 0.45520839
8.140625 9.3406239 0.45937502
11.059374 9.5593739 0.45937493
11.213999 9.415 0.442
-2.3000002 9.7000008 0.375
1.1288462 9.6711531 0.33653846
1.3522729 9.800456 0.40954557
1.525 9.875 0.375
1.9295455 9.875 0.45681816
5.6350002 9.6650019 0.44999996
5.7931809 9.8113651 0.45568186
7.6967397 9.7902174 0.38369569
7.8683338 9.6450005 0.39833337
10.775001 9.875 0.44999999
10.929838 9.7443552 0.45161289
1.4355264 9.953948 0.41447365
1.6165097 10.023115 0.39858487
1.972222 9.9638891 0.43425938
2.1784883 10.118021 0.44360459
5.932693 9.9596176 0.44615388
6.0952373 10.111903 0.44761905
7.4096155 10.105768 0.44551286
7.5634623 9.9750004 0.39038458
10.475 10.175 0.42500001
10.640382 10.036538 0.44807699
2.3236485 10.288514 0.45337838
2.4650004 10.435002 0.45000005
6.2375011 10.262501 0.45156255
6.3872232 10.40389 0.45166677
7.1152158 10.417393 0.44891304
7.2749991 10.272058 0.43676469
10.349193 10.359676 0.43951616
10.525 10.225 0.47499999
2.61221 10.588952 0.44709307
2.7657404 10.732409 0.44537035
6.5349994 10.565 0.44999996
6.7358341 10.711665 0.43166682
6.9750018 10.566303 0.40760875
10.062497 10.662502 0.45220593
10.225 10.525001 0.44999999
2.6544116 11.024999 0.37500003
2.7650001 10.905001 0.33500001
6.7750001 10.825 0.375
9.7623024 10.964684 0.44404763
9.9250002 10.825 0.45000002
2.6361113 11.16389 0.33055559
2.8529227 11.251623 0.44123384
3.0250001 11.375 0.44999999
9.4639711 11.263971 0.44926473
9.6374998 11.125 0.47499999
2.9416666 11.458334 0.32499999
3.1496148 11.547304 0.4473078
3.469048 11.611903 0.41547626
3.6908541 11.612803 0.44939029
9.1613617 11.561368 0.45000005
9.3250008 11.425001 0.44999999
3.2750001 11.75 0.44999999
3.3392861 11.732143 0.46071428
3.8349998 11.765 0.44999999
3.9871967 11.909147 0.44939026
8.8909101 11.862122 0.44393936
9.0321426 11.725 0.45357144
4.1350007 12.065001 0.44999999
4.2892847 12.210712 0.45000008
8.5861101 12.182407 0.45277783
8.7416668 12.041664 0.45000002
4.4350009 12.364999 0.45000002
4.596591 12.507956 0.45568177
8.2612314 12.494566 0.45036235
8.4416685 12.341665 0.44999996
4.7416668 12.647223 0.44444445
4.8279409 12.733825 0.4602941
8.0749989 12.696739 0.44891304
8.1549997 12.761251 0.44375005
4.8499999 12.925 0.57499999
7.9697361 13.073683 0.44934222
8.1426477 12.942649 0.44264704
4.1593747 13.459377 0.45312503
4.235714 13.396429 0.42500004
7.6839733 13.365386 0.45576936
7.8416657 13.241668 0.45000002
3.875 13.775001 0.45000002
4.0138884 13.650558 0.46388891
7.3895159 13.685481 0.46129039
7.546998 13.559 0.45899996
3.5750003 14.075 0.44999999
3.7452121 13.922872 0.46010637
6.7749987 14.006253 0.43906245
7.0678568 13.988572 0.4592858
7.2520838 13.847918 0.46041664
3.2750001 14.375 0.44999999
3.4261904 14.235717 0.46071431
6.5136366 14.303411 0.44545457
6.650001 14.159999 0.44833338
7.0083332 14.125 0.47500002
2.9625001 14.675 0.46249998
3.1479731 14.525 0.46959457
6.2164636 14.610364 0.44817066
6.3649998 14.465 0.44999996
2.9416666 14.741667 0.48333335
5.9296885 14.929688 0.46249998
6.0764284 14.786427 0.44357142
5.6346774 15.229836 0.4427419
5.7872219 15.083894 0.4527778
5.3375001 15.532146 0.4464286
5.4868426 15.389475 0.45394748
1.925 15.875 0.32499999
5.0444441 15.838887 0.45277777
5.1964288 15.690712 0.45499992
1.975 15.950001 0.32499999
4.7541676 16.129166 0.47916669
4.9050012 15.997853 0.4564285
4.4583335 16.452778 0.46944448
4.6045465 16.306818 0.45227268
4.1625004 16.75 0.47499996
4.3206525 16.603262 0.47065213
4.0750003 16.841667 0.49166664
-0.92500001 -0.92500001 0.67500001
-0.77229738 -1.0763515 0.69662166
-1.0636364 -0.75227278 0.659091
-1.3519232 -0.42884618 0.6769231
-1.175 -0.57499999 0.72500002
-1.6386365 -0.13863638 0.67500001
-1.4625001 -0.27500001 0.6875
-1.961905 0.17619047 0.69761902
-1.775 0.025000002 0.67500007
-2.8050001 0.465 0.875
-2.425 0.57499999 0.72500002
-2.2300005 0.45833328 0.67000008
-2.075 0.33500001 0.70500004
1.1198275 0.52327585 0.68879312
1.2250001 0.44166669 0.64166665
-2.5120969 0.7588709 0.67661297
-2.365 0.63499999 0.69500005
0.81944448 0.85277778 0.72499996
1.005 0.66500002 0.67000002
-2.8138888 1.0861112 0.67500007
-2.6583333 0.94166672 0.67500001
0.52954543 1.1431818 0.72954541
0.699 0.98900008 0.74500006
-3.113889 1.3861113 0.67500013
-2.9583333 1.2416667 0.67500007
0.23750001 1.4374998 0.75468743
0.39375007 1.2958333 0.76354164
-3.4064813 1.6824073 0.67500013
-3.2583332 1.5416666 0.67500007
-0.056034483 1.737069 0.74741375
0.094791681 1.5937502 0.76458335
-3.6958334 1.9902776 0.68333334
-3.5516672 1.8616668 0.67833346
-0.35462964 2.0379634 0.7490741
-0.19669811 1.901415 0.76650947
-3.9964287 2.3059525 0.67261916
-3.8386366 2.1522729 0.68409091
-0.6541667 2.3458335 0.7479167
-0.49166659 2.1972227 0.75388891
-4.2797618 2.6107144 0.67500013
-4.1386361 2.4749999 0.66590911
-0.94166684 2.6583331 0.75000006
-0.79009444 2.5155661 0.75330198
1.075 2.5980771 0.70000005
-4.5750003 2.9125001 0.67500013
-4.4276314 2.7828948 0.67763162
-1.2250001 2.9295454 0.72500008
-1.0967743 2.8314514 0.74919361
1.175 2.7249999 0.625
1.225 2.7249999 0.625
-4.8805552 3.2277777 0.67500007
-4.7184782 3.0815222 0.67500007
-1.225 3.0250001 0.625
-1.0382812 3.1429684 0.75234371
-0.875 3.2750001 0.74999994
1.6828947 3.1618419 0.68289483
-5.1783338 3.5350006 0.67500007
-5.0083327 3.3833332 0.68055564
-0.73863643 3.4386363 0.74999994
-0.57500005 3.5750003 0.75
-5.4642859 3.8357148 0.67142862
-5.3107142 3.6892858 0.67500007
-0.4403846 3.7365382 0.74961537
-0.25833336 3.863889 0.71944451
-5.7697368 4.1328955 0.69868428
-5.6211557 3.9923077 0.69038463
-0.24642856 3.925 0.6964286
0.83240736 4.1398149 0.74351841
0.95937514 4.0406246 0.72812504
2.6624999 4.1750002 0.72499996
2.7250001 4.1750002 0.72499996
-6.0642862 4.4321427 0.67500007
-5.913095 4.2892857 0.67976195
0.71120691 4.2887926 0.74913782
2.375 4.4749999 0.73500007
2.5465693 4.3318639 0.74558836
2.8575006 4.3191662 0.7525
3.03 4.46 0.73000002
-6.3656244 4.7312503 0.69375002
-6.2150011 4.5900002 0.68500006
0.50357145 4.6625004 0.74464291
0.65448713 4.7275643 0.7544871
2.3 4.5900006 0.74250007
2.425 4.5250001 0.82499999
3.1568179 4.5931821 0.71742421
3.3431821 4.7477274 0.75454551
-6.6659088 5.0386367 0.71136361
-6.5092101 4.8881583 0.69605273
-3.325 5.0750003 0.72500002
-3.1443543 5.0314503 0.74193537
-2.9749999 5.0749998 0.64999998
0.77134156 4.9048772 0.74268281
0.95403212 5.0427413 0.74596775
1.9574072 4.9694457 0.7361111
2.125 4.8249998 0.75833333
3.4647727 4.8897729 0.75568199
-6.9416666 5.3305559 0.68611121
-6.8076086 5.1880436 0.69673914
-3.625 5.375 0.72500002
-3.4482558 5.2534876 0.74534899
-3.1500001 5.125 0.75
-2.8532896 5.2572374 0.74210531
-2.675 5.375 0.70833337
1.0919353 5.2064524 0.74435461
1.251 5.342999 0.74300003
1.7599999 5.165 0.67500007
1.825 5.125 0.72500002
-7 5.4250002 0.64999998
-3.925 5.6750002 0.67500001
-3.7432911 5.5457315 0.75121951
-3.5750003 5.4250002 0.75
-2.7249999 5.4250007 0.70833337
-2.5496578 5.5359578 0.74623287
-2.375 5.6750002 0.75
1.3729169 5.4958353 0.74583334
2.6362906 5.6330647 0.74758071
2.7250001 5.5583334 0.7166667
-4.0413928 5.8561473 0.74959028
-3.875 5.7249999 0.76250005
-2.2409098 5.83182 0.74166662
-2.075 5.9749999 0.75
2.355 5.9390001 0.74299991
2.4906249 5.8062496 0.74687505
-4.338769 6.164854 0.7518115
-4.1750002 6.0250006 0.75
-1.9375002 6.1390624 0.75156242
-1.775 6.2750006 0.75
2.075 6.1750002 0.625
2.1814516 6.194355 0.73145151
5.5750003 6.2583332 0.85833335
-4.6328573 6.4650011 0.74428564
-4.4649997 6.3350005 0.75
-1.6421877 6.4312506 0.74843746
-1.4550002 6.5649996 0.73500007
2.3006098 6.4042683 0.73841459
2.4416666 6.5527773 0.74999994
5.3222222 6.5249996 0.7638889
5.4613633 6.3886366 0.81590909
-4.9222722 6.7649999 0.7604546
-4.7700005 6.6500001 0.73500007
-1.3181373 6.7171559 0.74460804
-1.1673079 6.8557696 0.74423081
2.5930328 6.7102461 0.74549192
2.7520833 6.8520827 0.76666665
5.0336952 6.8293457 0.74239135
5.1775002 6.6800003 0.74500006
-5.2145839 7.0624995 0.75416672
-5.0650005 6.9500003 0.74000007
-1.225 6.9499998 0.72500002
-1.0403224 7.0233879 0.75000012
-0.87500006 7.1678572 0.75357145
2.8886364 7.0059094 0.74045438
3.0663793 7.1370697 0.75258636
4.9046302 6.9546313 0.7490741
-0.73109752 7.3189025 0.74573159
-0.55576921 7.4634619 0.76346165
3.2107146 7.2892857 0.75
3.3650005 7.4350023 0.75000012
-0.41569763 7.6133733 0.76569772
-0.25714287 7.7607145 0.77499998
3.5091455 7.5871935 0.75060982
3.6650002 7.7350001 0.75
6.125 7.5999999 0.72500002
9.7447672 7.6703506 0.75058126
9.96875 7.6666679 0.78958321
-0.115 7.9175005 0.78249997
0.042857144 8.0607138 0.78214288
3.8107138 7.8892851 0.74999994
3.9349999 7.9650002 0.745
9.4603853 7.9619236 0.75038445
9.625 7.8250003 0.74500006
10.700001 8.0249996 0.625
0.18445946 8.2155399 0.7966218
0.34166667 8.3583336 0.79999995
9.166935 8.2548389 0.74435467
9.3250008 8.125 0.75
10.775 8.125 0.625
10.938637 8.2522736 0.625
0.49521282 8.5250006 0.76436156
0.64750004 8.6575012 0.73999995
4.6550002 8.6450005 0.68000001
8.8796864 8.5484381 0.72968739
9.0249996 8.4250011 0.67500007
11.125 8.4250002 0.625
0.79679489 8.7955122 0.74679494
0.96465516 8.9353456 0.74741375
4.7366672 8.7666674 0.73666668
4.8861108 8.9111128 0.75277781
8.5622101 8.8877926 0.73895359
8.7321434 8.7321434 0.76071429
11.355 8.9750004 0.75500005
1.0973686 9.0828934 0.74342114
5.0307693 9.065383 0.74423081
5.1900005 9.2200003 0.73333335
8.2760868 9.1913052 0.74999994
8.4416676 9.0333338 0.72500002
11.364131 9.1749983 0.74456525
11.444354 9.1330652 0.75725788
0.98928571 9.4607153 0.65357143
5.3349996 9.3650007 0.75000012
5.4892869 9.5107136 0.75
7.9983325 9.4672222 0.75166672
8.1426477 9.3426456 0.75441176
11.062499 9.5562487 0.74687499
11.211539 9.4240389 0.7394231
0.82499999 9.6750002 0.77499998
1.425 9.8583336 0.64166665
1.932143 9.875 0.73928571
5.6350002 9.6650009 0.75
5.7945113 9.8103657 0.75792682
7.6500001 9.8249998 0.82499999
10.775001 9.875 0.75
10.912964 9.75 0.75462961
1.4607145 9.9392872 0.66071433
1.5706525 10.035868 0.71630448
2.0101349 9.9763527 0.72905415
2.185606 10.125 0.74772733
5.9324083 9.9564829 0.75092608
6.0903835 10.099359 0.7480768
7.3846159 10.142308 0.74615395
10.475 10.175 0.72500002
10.661904 10.014284 0.72619045
2.3220592 10.292646 0.75441176
2.4689994 10.433002 0.741
6.2370701 10.266379 0.750862
6.396111 10.410557 0.74388885
7.1531258 10.3875 0.67812502
7.2696428 10.264286 0.74107134
10.175 10.475 0.82499999
10.335465 10.352908 0.74709308
2.61218 10.589103 0.74166673
2.768182 10.727275 0.73636371
6.5362902 10.563709 0.75080651
6.6892862 10.708331 0.7440477
10.06623 10.655702 0.73728061
10.232143 10.539287 0.76785719
2.875 10.875 0.75833338
9.7661772 10.973039 0.74656868
9.9321432 10.832143 0.76071435
2.8949993 11.311 0.68300003
9.4651642 11.269261 0.74303246
9.6305561 11.136112 0.77499998
2.9749999 11.425001 0.69166672
3.125 11.543574 0.70642847
3.575 11.549999 0.72500002
3.6901166 11.611048 0.74709302
9.1662693 11.567063 0.7416665
9.3374996 11.425001 0.76250005
3.2750001 11.725 0.72500002
3.3666668 11.75 0.74166667
3.8282254 11.768548 0.75241923
3.9892848 11.910715 0.74999994
8.8841829 11.877043 0.75255102
9.0349998 11.735 0.79000002
4.1336212 12.064654 0.75086206
4.2871623 12.204729 0.74797302
8.5882082 12.185376 0.75141507
8.7472219 12.038887 0.76111108
4.4375005 12.362501 0.72708338
4.6075583 12.506394 0.74127913
8.2844343 12.485376 0.75518852
8.4434223 12.346052 0.76710522
4.7531247 12.653127 0.76249999
4.8250008 12.713463 0.72884619
8.0749989 12.716668 0.74166667
8.1602268 12.757956 0.75454551
7.9648314 13.086865 0.74788135
8.1444445 12.941669 0.75277787
4.1650004 13.465001 0.65500003
4.2249999 13.425 0.625
7.6900806 13.366269 0.75674599
7.8406239 13.253125 0.765625
3.875 13.775001 0.745
4.0200996 13.65343 0.74362737
7.3920221 13.689892 0.77606392
7.5554333 13.555433 0.76413047
3.575 14.075 0.73500007
3.7442989 13.932897 0.74429828
6.7790813 14.017859 0.74336731
7.0687494 13.996431 0.74732143
7.2610006 13.849 0.76699996
3.2750001 14.375 0.73499995
3.4380426 14.234781 0.73369569
6.5136361 14.304548 0.74772722
6.6550007 14.158334 0.75000018
7 14.125 0.80000001
3.1475 14.534998 0.7249999
6.2338247 14.610291 0.74264705
6.3687491 14.46875 0.74062502
2.9386361 14.747728 0.75227273
3.0250001 14.725 0.72500002
5.9330659 14.934676 0.74758059
6.0899997 14.787503 0.75249994
5.6350007 15.235001 0.75000006
5.7912498 15.083751 0.75000012
5.3358688 15.538041 0.75760877
5.4875007 15.389998 0.75500005
5.0516677 15.851667 0.75833338
5.195313 15.698436 0.76249999
4.7522731 16.147728 0.76136369
4.9137092 15.989516 0.7637096
4.4392858 16.467857 0.78214288
4.5964289 16.313097 0.76309532
4.1750002 16.741667 0.74166667
4.3208332 16.591667 0.75833333
-2.8142862 0.47142857 0.96785724
0.85624999 0.86249995 1.025
0.94166672 0.75833338 1.0166668
0.55714285 1.157143 1.0535716
0.69679481 1.026282 1.053205
0.23666671 1.4433333 1.045
0.40454549 1.3159091 1.0397724
-0.050000001 1.746154 1.0384613
0.10198417 1.6091268 1.0472223
-0.34166664 2.04881 1.0416666
-0.18811476 1.9094261 1.0454913
-0.64166671 2.3583333 1.0499998
-0.48611122 2.2138886 1.0500001
-4.8602943 2.6132352 0.99264705
-4.7750001 2.5416667 1
-0.94166684 2.6583331 1.05
-0.79044116 2.5330884 1.0588233
-1.225 2.9178572 1.032143
-1.0775977 2.8256493 1.0548702
-1.0406251 3.1359377 1.0468746
-0.875 3.2750001 1.0500001
-0.73828143 3.4382818 1.0507814
-0.57500005 3.5750003 1.05
-0.4390626 3.7375 1.0492185
-0.27500001 3.875 1.05
-0.27500001 3.925 1.0650001
0.78500003 4.1650004 0.97500002
0.92500007 4.0750003 0.92500007
2.7249999 4.1750002 1.175
0.70833331 4.3049998 1.0449998
2.5511365 4.3386374 1.0443184
2.8397057 4.311275 1.031863
3.0250001 4.4749999 0.95000005
0.52177417 4.6701617 1.0169356
0.65071422 4.7292867 1.0421426
2.3464289 4.5392866 1.0535715
3.1916671 4.6583338 0.94166672
3.3500001 4.7531252 1.0437499
-3.325 5.0749998 0.92500001
-3.1476419 5.0429235 1.0485848
0.79318196 4.9068174 1.0545454
0.95833331 5.0449996 1.0549999
2.01371 4.9201608 1.0169353
2.125 4.8249998 1.0083334
3.4750004 4.8988643 1.0534092
-3.4393935 5.2628784 1.0507576
-3.1500001 5.125 1.0500001
-2.8613644 5.261364 1.0500003
1.0943547 5.2080646 1.0467741
1.2431818 5.3431816 1.0340908
-3.7363639 5.5560613 1.0515153
-3.5750003 5.4250002 1.0500001
-2.7250001 5.4250002 1.0500001
-2.5492651 5.5419121 1.0514709
-2.375 5.6750002 1.0500001
1.35875 5.4862499 1.0525001
2.6423078 5.6423078 1.0499998
2.7249999 5.5916667 1.1083333
-4.0379028 5.8604832 1.0524193
-3.875 5.7249999 1.0500001
-2.238636 5.8386364 1.05
-2.075 5.9749999 1.0500001
2.3618422 5.9460526 1.0539474
2.4968746 5.8114586 1.0489583
5.8249998 5.9749999 1.15
-4.3330359 6.1678562 1.0392859
-4.1750002 6.0250006 1.05
-1.9373074 6.1396146 1.0496151
-1.775 6.2750006 1.0500001
2.2041667 6.1958342 1.04375
5.6156249 6.2343755 1.0624999
5.7464285 6.0964289 1.1107144
-4.6183329 6.4661102 1.0405554
-4.465909 6.3386364 1.065909
-1.6419357 6.4338703 1.05
-1.4750001 6.5750003 1.0500001
2.3008068 6.4024191 1.0637095
2.45 6.5500007 1.0464287
5.3270831 6.5020838 1.0437502
5.4678583 6.3702388 1.0416666
-4.9227281 6.77841 1.0409092
-4.7638893 6.6361108 1.0750002
-1.3348358 6.7315578 1.0520489
-1.1678572 6.8750005 1.0535715
2.5921056 6.7078948 1.044737
2.75 6.8499999 1.0568182
5.0358686 6.8315206 1.0445652
5.1725001 6.6850009 1.0525001
-5.1596155 7.0173078 1.051923
-5.0607147 6.9250002 1.0607144
-1.225 6.9250002 1.075
-1.0361111 7.0376983 1.050397
-0.875 7.1750002 1.05
2.8912787 6.9877906 1.0470926
3.0638895 7.1342597 1.0601852
4.9218745 6.9500003 1.0000001
-0.73804337 7.3119559 1.05
-0.55833322 7.4583335 1.05
3.2107148 7.2892866 1.0499998
3.365 7.4350019 1.05
-0.41715688 7.6122541 1.047549
-0.25833336 7.7616673 1.0283334
3.5137498 7.5924988 1.0500001
3.6646552 7.7353463 1.0474137
6.125 7.5999999 0.97500002
9.5749998 7.7750001 1.075
9.7455873 7.6426458 1.0534315
9.9694443 7.649075 1.0453703
-0.1144231 7.914423 1.0480767
0.035714291 8.0571423 1.025
3.8114865 7.8939185 1.0466216
3.925 7.9749999 1.0125
9.4533329 7.9650002 1.0491668
9.625 7.8249998 0.97500002
0.18443398 8.2127361 1.0476415
0.34166664 8.3583336 1.0500001
9.1916666 8.2287035 1.0175924
9.3249998 8.125 1.025
10.875 8.25 1.025
0.48443386 8.5117903 1.0485847
0.64375001 8.656251 1.04375
4.6999998 8.6750002 1.0875
8.8650007 8.5724993 1.0550001
9.0249996 8.4250002 1
0.79333329 8.7933331 1.0433334
0.95131576 8.9328957 1.043421
4.7442312 8.7711535 1.0538461
4.867857 8.8946438 1.0446427
8.5588694 8.8879042 1.0395161
8.7250004 8.7250004 1.0625
11.3625 8.9750004 1.05
1.0833334 9.083333 1.05
5.0249996 9.0629978 1.0569999
5.1846156 9.2134619 1.0326923
8.2809525 9.1857138 1.0547618
8.4386368 9.0386372 1.0386364
11.366176 9.2044115 1.0632353
11.448438 9.126564 1.0437499
5.3358698 9.3684788 1.0445652
5.4921064 9.5131569 1.0368421
8.0006094 9.4652443 1.0396341
8.140625 9.3406239 1.053125
11.057142 9.5642843 1.0464287
11.218332 9.4172211 1.0427777
1.925 9.875 0.97500002
5.6336207 9.6629324 1.0491378
5.7957311 9.8103666 1.0554876
7.6499996 9.8625002 1.1624999
10.775 9.875 1.0250001
10.931412 9.7185898 1.0173076
1.625 10.075 0.92500001
2.029546 9.9901533 1.0280303
2.1638889 10.120831 1.0499998
5.9358692 9.9597836 1.048913
6.0943174 10.105681 1.0431817
7.4041667 10.125001 1.0041668
7.5659094 9.96591 1.125
10.475 10.175001 1.0416667
10.639285 10.041666 1.0464286
2.3176472 10.291177 1.052941
2.4675927 10.434262 1.0490739
6.2379627 10.262037 1.0453703
6.3885136 10.411487 1.0385134
7.3249998 10.225 0.95000005
10.175001 10.475 1.0250001
10.317858 10.379763 1.0476191
2.6098487 10.585605 1.0477272
2.7702384 10.725002 1.0559523
6.5357141 10.564284 1.05
6.6887512 10.708749 1.045
10.062999 10.665001 1.0409998
10.233334 10.533333 1.0500001
2.8375001 10.825 1.1
9.7699165 10.973304 1.0427965
9.9250002 10.832143 1.0535715
9.4717751 11.273388 1.0556452
9.6340914 11.138638 1.0840911
3.1107144 11.532145 0.96071434
3.6894743 11.615788 1.0473683
9.1817799 11.567371 1.0461863
9.3403845 11.436541 1.0596154
3.8249996 11.768751 1.0578125
3.9881587 11.90921 1.0421051
8.8869562 11.884785 1.0663043
9.0333347 11.741667 1.0625
4.131 12.058999 1.041
4.2911758 12.207349 1.0426471
8.5898924 12.187764 1.0409575
8.7416668 12.04722 1.0472224
4.4458332 12.358334 1.0583334
4.611207 12.507759 1.0318965
8.2895851 12.487499 1.0479167
8.4425011 12.352499 1.0525001
4.7416668 12.653573 1.0440475
4.8250003 12.725 1.0400001
8.0749998 12.705001 1.045
8.1634607 12.75577 1.0528847
7.9932919 13.099392 1.0408536
8.1555567 12.950002 1.0472223
7.6943879 13.391323 1.0260202
7.8555551 13.252779 1.0222222
3.875 13.775 1.0625
3.9727271 13.704547 1.0227273
7.3994198 13.704069 1.0505813
7.5565786 13.567103 1.0407895
3.575 14.075 1.0375
3.7375002 13.940628 1.0552084
6.7939177 14.020947 1.0506755
7.0681376 14.011277 1.0495098
7.2687502 13.86719 1.0578126
3.2750001 14.375 1.05
3.4423919 14.240217 1.0456519
6.5207138 14.313572 1.035
6.6612077 14.169828 1.0543103
7.0250006 14.125 1.0583334
3.1464288 14.54286 1.0428569
6.2330642 14.621775 1.0330644
6.3734379 14.482811 1.0484374
2.9194443 14.780555 1.0472223
3.0250001 14.725 1.125
5.9314523 14.934677 1.0443548
6.0874991 14.791252 1.0425001
5.6350007 15.235 1.0500001
5.7891026 15.08782 1.0442306
5.3472219 15.541667 1.0305555
5.4929476 15.387822 1.049359
5.0550008 15.848332 1.0549999
5.1925683 15.71419 1.0506757
4.7472219 16.152779 1.0527778
4.9121804 15.995513 1.0532051
4.4499998 16.454168 1.0541667
4.5949998 16.312502 1.0549999
4.1750002 16.775 0.92500001
4.311667 16.601667 1.0416667
4.1750002 16.825001 1.025
0.875 0.875 1.2750001
1.025 0.77499998 1.325
0.565 1.165 1.2950001
0.72499996 1.0187501 1.271875
0.24999999 1.4687501 1.3125
0.42249998 1.3199999 1.3025
-0.059374999 1.7406249 1.3499999
0.10136361 1.6204548 1.3068181
-0.34078941 2.0434213 1.3407896
-0.18766667 1.910333 1.3303332
-0.64375001 2.35625 1.3375001
-0.4782258 2.2233872 1.3193545
-0.94264716 2.6573527 1.342647
-0.78171641 2.5287306 1.3264923
-1.225 2.9178572 1.3464286
-1.0701392 2.8256946 1.3347226
-1.0343748 3.1421878 1.3484374
-0.875 3.2750001 1.3499999
-0.73807704 3.4388459 1.3503842
-0.57500005 3.5750003 1.3500001
-0.44087303 3.7353182 1.3472223
-0.27500001 3.875 1.3500001
-0.25 3.9249997 1.3562499
0.71250004 4.3142853 1.353572
2.375 4.4749999 1.225
2.5487497 4.3449993 1.29875
2.7625 4.2375002 1.2687501
0.57499999 4.6349998 1.3149999
0.65178573 4.7250004 1.3357145
2.3431821 4.5431824 1.3022728
2.425 4.5250001 1.35
3.3480771 4.7634621 1.3211539
-3.1479168 5.0499983 1.3499998
0.7986843 4.9118428 1.3451753
0.95892864 5.044642 1.3482145
2.125 4.8499999 1.25
3.4761117 4.8961115 1.3472224
5.125 4.875 1.275
-3.625 5.375 1.475
-3.437319 5.2634058 1.3489126
-3.1403847 5.1288466 1.3596156
-2.86306 5.2608209 1.3511194
1.0954916 5.2094259 1.3454915
1.2416668 5.3555555 1.3499999
-3.7349994 5.558845 1.3442309
-3.5750003 5.4250002 1.3500001
-2.7250001 5.4250002 1.3500001
-2.5469515 5.5554881 1.3542684
-2.375 5.6750002 1.3500001
1.3611114 5.4916673 1.3486111
2.648684 5.648685 1.351316
2.7249999 5.5749998 1.425
-4.0241065 5.8526788 1.3455358
-3.875 5.7249999 1.3499999
-2.425 5.7249999 1.425
-2.2458866 5.8458858 1.3579116
-2.075 5.9749999 1.3500001
2.3673079 5.9557691 1.3326924
2.5063558 5.8216105 1.3478812
5.9000001 5.9250002 1.275
-4.3164892 6.1718078 1.3430851
-4.1599998 6.0300007 1.3750001
-2.125 6.0250001 1.425
-1.9463334 6.1396666 1.3596662
-1.775 6.2750006 1.3499999
2.2354164 6.1749992 1.3416667
5.6062503 6.2187505 1.3343748
5.7562499 6.0812497 1.3125001
-4.6209464 6.4844599 1.3493245
-4.465909 6.3386369 1.343182
-1.825 6.3249998 1.475
-1.6388462 6.4380774 1.3519229
-1.4750001 6.5750003 1.3500001
2.2912502 6.4012499 1.3412499
2.4455879 6.5485291 1.3426471
5.3279409 6.5161762 1.3426471
5.4788461 6.3634615 1.3326923
-4.9097219 6.7763886 1.3541666
-4.7599998 6.645 1.365
-1.3357693 6.7434611 1.3503845
-1.1678572 6.8750005 1.3678572
2.5992429 6.7053032 1.3446972
2.7602942 6.8455877 1.3544118
5.0625 6.8124995 1.2375
5.1937499 6.6812496 1.3125
-5.1464291 7.0035715 1.3107144
-5.0600009 6.9500003 1.34
-1.0472223 7.0297623 1.3503969
-0.86785716 7.1750002 1.3464286
2.902631 6.9881592 1.347368
3.0637095 7.1314521 1.3475807
7.5750003 7.0650001 1.295
-0.7147727 7.3215923 1.35
-0.55624992 7.4624991 1.35625
3.2087214 7.2889538 1.3529069
3.365741 7.4361134 1.3527778
-0.41562515 7.6156249 1.346875
-0.26136366 7.7659101 1.343182
3.5101357 7.5871611 1.3412163
3.6620371 7.7342591 1.3546294
9.5749998 7.7750001 1.3875
9.7387247 7.6436267 1.3544117
9.9675951 7.6231475 1.3564817
-0.11428573 7.9202375 1.3464286
0.043749999 8.062499 1.3468751
3.8152781 7.8902783 1.3430554
3.925 7.9749999 1.3416667
9.4796886 7.9234366 1.3203124
0.18676475 8.2161751 1.3495096
0.34375 8.3624992 1.35
9.1583338 8.2555571 1.3527778
9.3249998 8.125 1.275
0.47812498 8.5031233 1.3468746
0.65357149 8.6535721 1.3464286
4.6750002 8.6750002 1.325
8.8597822 8.5750008 1.3489131
9.0249996 8.4250002 1.2750001
0.80378801 8.799243 1.3477273
0.9468751 8.9468756 1.353125
4.7380443 8.7706509 1.3358697
4.8795452 8.9053049 1.3507574
8.5731487 8.8805552 1.3435185
8.7250004 8.7250004 1.3249999
11.35 8.9750004 1.375
11.425 8.9750004 1.475
1.073 9.072998 1.3470001
5.0369997 9.0709982 1.3489999
5.1840916 9.2053041 1.3537877
8.2858114 9.1831083 1.3574322
8.4361115 9.041666 1.3416667
11.359615 9.2442322 1.3403846
11.450003 9.1339283 1.3517858
5.3250003 9.3602943 1.3632352
5.4937506 9.5083332 1.3499999
8.0083332 9.4571438 1.3428569
8.1428576 9.3428564 1.3607143
11.062499 9.5625 1.28125
11.22134 9.4128027 1.3408533
5.6423917 9.6641321 1.3293478
5.7947364 9.8105268 1.3539472
7.730556 9.7694445 1.3694445
7.8249998 9.7250004 1.425
10.775 9.875 1.3583333
10.930882 9.7220592 1.3485293
2.0650001 10.075 1.375
2.1692305 10.148078 1.3403846
5.9384632 9.9596176 1.3403846
6.0932913 10.107927 1.34939
7.5666671 9.9666672 1.2333333
10.475 10.175 1.25
10.625001 10.058334 1.3583335
2.3152783 10.290277 1.3569443
2.4675927 10.43426 1.3453702
6.2423911 10.268478 1.3489132
6.3839293 10.407146 1.3392857
10.175001 10.475 1.2916667
10.327779 10.358336 1.3347222
2.6104844 10.583064 1.3379034
2.7785716 10.716074 1.3535715
6.5397058 10.569117 1.3397058
6.6933346 10.706666 1.3400003
10.058016 10.667456 1.3523582
10.245 10.534999 1.275
9.7683353 10.976665 1.3449997
9.9361115 10.83611 1.3472221
9.4785118 11.26535 1.3469299
9.6500006 11.135715 1.3535714
3.6499996 11.578123 1.3406252
9.1922417 11.580171 1.3198277
9.3349991 11.445002 1.3299999
3.8307693 11.765386 1.3576924
3.9944453 11.918056 1.3416667
8.882143 11.894644 1.3035716
9.041667 11.741668 1.325
4.1381583 12.064471 1.338158
4.2969999 12.202998 1.3470001
8.5950003 12.1925 1.3099999
8.7431812 12.052273 1.3113637
4.4549999 12.36 1.34
4.5925002 12.505 1.3425001
8.2852926 12.508825 1.3088237
8.4555559 12.358334 1.3111112
4.7392859 12.657145 1.3535714
4.8321433 12.739285 1.3321428
8.0749998 12.724999 1.3125
8.1664639 12.755488 1.3274391
7.9988632 13.110228 1.3238636
8.1625004 12.967187 1.3484373
7.7161107 13.402776 1.3394444
7.8604832 13.268547 1.3491935
7.4187512 13.717186 1.3406247
7.5785704 13.580357 1.3625001
3.5750003 14.075 1.3583333
3.7137098 13.96855 1.3137097
6.8083324 14.028334 1.3333333
7.0749998 14.023938 1.3441488
7.2732143 13.878574 1.3535715
3.2750001 14.375 1.35
3.44875 14.239998 1.3325001
6.5290527 14.314191 1.3493241
6.6750011 14.176349 1.3466218
7.0392861 14.125001 1.3678573
3.1604841 14.539513 1.307258
6.231668 14.628334 1.3566668
6.3826919 14.481409 1.3621795
2.9416666 14.758333 1.2833333
5.9287043 14.936112 1.3453705
6.0908537 14.788413 1.3542681
5.6386371 15.22727 1.3568183
5.7871218 15.087121 1.3477271
5.3499999 15.538888 1.3333335
5.4828115 15.401567 1.3499998
5.0557699 15.840384 1.3480769
5.2069445 15.699999 1.3375002
4.7458334 16.150002 1.3416667
4.9035721 15.996428 1.3589284
4.4549999 16.455 1.3149999
4.6138887 16.305553 1.3416666
4.1750002 16.725 1.275
4.3300004 16.575003 1.3100001
-0.079166666 1.75 1.5708332
-0.35749999 2.0375001 1.6775
-0.21214288 1.8935713 1.6492854
-0.64833343 2.3383338 1.6416669
-0.50608116 2.188514 1.6439191
-0.94807702 2.6519229 1.6403846
-0.80781269 2.5203123 1.6421876
-1.23125 2.9187498 1.6437501
-1.100862 2.8094828 1.6577591
-0.99256736 3.1831083 1.614189
-0.875 3.2750001 1.65
-0.74087286 3.4353182 1.648016
-0.57500005 3.5750003 1.65
-0.44132659 3.7290812 1.6494896
-0.27500001 3.875 1.65
-0.24374999 3.9249997 1.6374999
0.70394748 4.3460522 1.6592106
0.57499999 4.6500001 1.525
0.6541667 4.7416673 1.5958333
3.3821428 4.7678576 1.6535715
-3.1226187 5.0488081 1.6440479
0.81357157 4.9178576 1.6292858
0.9569999 5.0409999 1.6410003
3.4750004 4.8937507 1.6362505
-3.439286 5.2702374 1.6488098
-3.14079 5.1302633 1.6407894
-2.8567569 5.2608128 1.6506755
-2.675 5.375 1.7083334
1.0923079 5.2144232 1.6528847
1.2428572 5.3500004 1.6250001
-3.7259607 5.5528841 1.6374999
-3.5750003 5.4250002 1.65
-2.7250001 5.4250002 1.65
-2.5505559 5.5505548 1.6477778
-2.375 5.6750002 1.65
1.3613636 5.4901519 1.6356059
2.655 5.6599998 1.5949999
2.7249999 5.6083336 1.5916667
-4.0176473 5.8735294 1.6529416
-3.8678575 5.7249999 1.6678571
-2.425 5.7249999 1.6550001
-2.249419 5.8517437 1.6529069
-2.075 5.9749999 1.6750001
2.375 5.9549994 1.6450001
2.5022728 5.8331819 1.6404551
5.9000001 5.9499998 1.675
-4.317647 6.1838231 1.6250002
-4.1624999 6.041667 1.6625001
-2.125 6.0250001 1.6449999
-1.9532046 6.1455131 1.6525643
-1.775 6.2750001 1.6750001
2.222826 6.1923909 1.651087
5.621429 6.2178578 1.6285714
5.7607145 6.0892859 1.6678571
-4.6094828 6.4801722 1.6353452
-4.4549999 6.3350005 1.6249999
-1.825 6.3249998 1.55
-1.6396154 6.4380765 1.6519228
-1.4750001 6.5750003 1.6500001
2.2891026 6.3942318 1.6506411
2.4464288 6.5535712 1.6571429
5.3416667 6.5166664 1.5583334
5.4925003 6.3800006 1.6274999
-4.9022722 6.7863631 1.6386366
-4.7550006 6.645 1.6450001
-1.347131 6.7340155 1.643033
-1.1678572 6.8678575 1.6535716
2.5859747 6.6945119 1.6420733
2.7592106 6.8381572 1.6434211
-5.1416669 7.0750003 1.6583333
-5.0392861 6.9321427 1.6178573
-1.0515958 7.0132985 1.6377659
-0.875 7.1624994 1.675
2.9033332 6.9883337 1.6316668
3.0583336 7.1500006 1.6277779
-0.71413064 7.3173923 1.6456523
-0.56166667 7.4583335 1.6450002
3.1900003 7.3037505 1.6425002
3.3723683 7.4486847 1.6565791
-0.42256102 7.6140218 1.6542681
-0.26500005 7.7650008 1.6350001
3.5046873 7.5828114 1.6406251
3.6671879 7.728126 1.6499997
