# .PCD v0.7 - Point Cloud Data file format
VERSION 0.7
FIELDS x y z
SIZE 4 4 4
TYPE F F F
COUNT 1 1 1
WIDTH 1850
HEIGHT 1
VIEWPOINT 0 0 0 1 0 0 0
POINTS 1850
DATA ascii
2.4749999 2.0250001 2.575
2.425 2.075 2.575
2.4749999 2.075 2.575
2.5250001 2.0250001 2.5250001
2.575 2.0250001 2.5250001
2.5250001 2.075 2.5250001
2.575 2.075 2.5250001
2.5250001 2.0250001 2.575
2.575 2.0250001 2.575
2.5250001 2.075 2.575
2.575 2.075 2.575
2.425 2.125 2.575
2.425 2.175 2.575
2.5250001 2.125 2.5250001
2.575 2.125 2.5250001
2.5250001 2.175 2.5250001
2.575 2.175 2.5250001
2.5250001 2.125 2.575
2.575 2.125 2.575
2.5250001 2.175 2.575
2.575 2.175 2.575
2.7750001 2.0250001 2.4749999
2.7750001 2.075 2.4749999
2.7750001 2.175 2.425
2.7750001 2.125 2.4749999
2.7750001 2.175 2.4749999
2.625 2.0250001 2.5250001
2.675 2.0250001 2.5250001
2.625 2.075 2.5250001
2.675 2.075 2.5250001
2.625 2.0250001 2.575
2.675 2.0250001 2.575
2.625 2.075 2.575
2.675 2.075 2.575
2.7249999 2.0250001 2.5250001
2.7249999 2.075 2.5250001
2.7249999 2.0250001 2.575
2.7249999 2.075 2.575
2.7750001 2.075 2.575
2.625 2.125 2.5250001
2.675 2.125 2.5250001
2.675 2.175 2.5250001
2.625 2.125 2.575
2.675 2.125 2.575
2.625 2.175 2.575
2.675 2.175 2.575
2.7249999 2.125 2.5250001
2.7750001 2.125 2.5250001
2.7249999 2.175 2.5250001
2.7750001 2.175 2.5250001
2.7249999 2.125 2.575
2.7249999 2.175 2.575
2.425 2.2249999 2.575
2.4749999 2.2249999 2.575
2.4749999 2.2750001 2.575
2.5250001 2.2249999 2.5250001
2.575 2.2249999 2.5250001
2.5250001 2.2750001 2.5250001
2.575 2.2750001 2.5250001
2.5250001 2.2249999 2.575
2.575 2.2249999 2.575
2.5250001 2.2750001 2.575
2.575 2.2750001 2.575
2.4749999 2.325 2.575
2.5250001 2.325 2.5250001
2.5250001 2.325 2.575
2.575 2.325 2.575
2.575 2.375 2.575
2.7750001 2.2249999 2.425
2.7750001 2.2249999 2.4749999
2.7249999 2.2750001 2.4749999
2.7750001 2.2750001 2.4749999
2.7750001 2.325 2.425
2.7750001 2.325 2.4749999
2.7750001 2.375 2.4749999
2.625 2.2249999 2.5250001
2.675 2.2249999 2.5250001
2.675 2.2750001 2.5250001
2.625 2.2249999 2.575
2.675 2.2249999 2.575
2.625 2.2750001 2.575
2.675 2.2750001 2.575
2.7249999 2.2249999 2.5250001
2.7249999 2.2750001 2.5250001
2.7249999 2.2249999 2.575
2.7249999 2.2750001 2.575
2.7750001 2.2750001 2.575
2.625 2.325 2.5250001
2.675 2.325 2.5250001
2.625 2.325 2.575
2.675 2.325 2.575
2.675 2.375 2.575
2.7249999 2.325 2.5250001
2.7249999 2.375 2.5250001
2.7249999 2.325 2.575
2.7249999 2.375 2.575
2.4749999 2.2249999 2.625
2.5250001 2.2249999 2.625
2.825 2.0250001 2.425
2.825 2.075 2.425
2.825 2.0250001 2.4749999
2.825 2.075 2.4749999
2.825 2.125 2.425
2.825 2.175 2.425
2.825 2.125 2.4749999
2.825 2.175 2.4749999
2.825 2.2249999 2.425
2.825 2.2750001 2.425
2.825 2.2249999 2.4749999
2.825 2.2750001 2.4749999
2.825 2.325 2.425
2.825 2.375 2.425
2.825 2.325 2.4749999
2.825 2.375 2.4749999
2.7750001 2.425 2.425
2.7750001 2.4749999 2.425
2.7750001 2.425 2.4749999
2.7750001 2.4749999 2.4749999
2.7249999 2.5250001 2.425
2.7249999 2.5250001 2.4749999
2.7750001 2.5250001 2.4749999
2.675 2.4749999 2.5250001
2.675 2.425 2.575
2.625 2.4749999 2.575
2.7249999 2.425 2.5250001
2.7249999 2.4749999 2.5250001
2.7249999 2.425 2.575
2.7249999 2.4749999 2.575
2.7249999 2.5250001 2.5250001
2.7249999 2.5250001 2.575
2.825 2.425 2.425
2.825 2.425 2.4749999
2.825 2.4749999 2.4749999
4.9749999 0.025 0.075000003
4.9749999 0.075000003 0.075000003
4.9749999 0.125 0.075000003
4.9749999 0.175 0.075000003
4.9749999 0.025 0.175
4.9749999 0.075000003 0.175
4.9749999 0.175 0.125
4.9749999 0.125 0.175
4.9749999 0.175 0.175
5.0250001 0.025 0.075000003
5.0250001 0.175 0.075000003
5.0250001 0.025 0.175
5.0250001 0.175 0.125
5.0250001 0.125 0.175
5.0250001 0.175 0.175
4.9749999 0.27500001 0.025
4.9749999 0.22499999 0.075000003
4.9749999 0.27500001 0.075000003
4.9749999 0.32499999 0.075000003
4.9749999 0.375 0.075000003
4.9749999 0.22499999 0.125
4.9749999 0.27500001 0.125
4.9749999 0.22499999 0.175
4.9749999 0.32499999 0.125
5.0250001 0.22499999 0.025
5.0250001 0.27500001 0.025
5.0250001 0.22499999 0.075000003
5.0250001 0.27500001 0.075000003
5.0250001 0.32499999 0.025
5.0250001 0.32499999 0.075000003
5.0250001 0.375 0.075000003
5.0250001 0.22499999 0.125
5.0250001 0.27500001 0.125
5.0250001 0.22499999 0.175
5.0250001 0.27500001 0.175
5.0250001 0.32499999 0.125
5.0250001 0.375 0.125
5.0250001 0.32499999 0.175
5.0250001 0.375 0.175
4.9749999 0.025 0.22499999
4.9749999 0.075000003 0.22499999
4.9749999 0.025 0.27500001
4.9749999 0.075000003 0.27500001
4.9749999 0.125 0.22499999
4.9749999 0.175 0.22499999
4.9749999 0.125 0.27500001
4.9749999 0.025 0.32499999
5.0250001 0.025 0.22499999
5.0250001 0.075000003 0.22499999
5.0250001 0.025 0.27500001
5.0250001 0.075000003 0.27500001
5.0250001 0.125 0.22499999
5.0250001 0.175 0.22499999
5.0250001 0.125 0.27500001
5.0250001 0.175 0.27500001
5.0250001 0.025 0.32499999
5.0250001 0.075000003 0.32499999
5.0250001 0.025 0.375
5.0250001 0.075000003 0.375
5.0250001 0.125 0.32499999
5.0250001 0.175 0.32499999
5.0250001 0.125 0.375
5.0250001 0.175 0.375
4.9749999 0.22499999 0.22499999
4.9749999 0.27500001 0.22499999
4.9749999 0.32499999 0.22499999
5.0250001 0.22499999 0.22499999
5.0250001 0.27500001 0.22499999
5.0250001 0.22499999 0.27500001
5.0250001 0.27500001 0.27500001
5.0250001 0.32499999 0.22499999
5.0250001 0.375 0.22499999
5.0250001 0.32499999 0.27500001
5.0250001 0.375 0.27500001
5.0250001 0.22499999 0.32499999
5.0250001 0.27500001 0.32499999
5.0250001 0.22499999 0.375
5.0250001 0.27500001 0.375
5.0250001 0.32499999 0.32499999
5.0250001 0.375 0.32499999
5.0250001 0.32499999 0.375
5.0250001 0.375 0.375
4.9749999 0.42500001 0.075000003
4.9749999 0.47499999 0.075000003
5.0250001 0.42500001 0.075000003
5.0250001 0.47499999 0.075000003
5.0250001 0.52499998 0.025
5.0250001 0.57499999 0.025
5.0250001 0.52499998 0.075000003
5.0250001 0.57499999 0.075000003
5.0250001 0.42500001 0.125
5.0250001 0.47499999 0.125
5.0250001 0.42500001 0.175
5.0250001 0.47499999 0.175
5.0250001 0.52499998 0.125
5.0250001 0.57499999 0.125
5.0250001 0.52499998 0.175
5.0250001 0.57499999 0.175
5.0250001 0.625 0.025
5.0250001 0.625 0.075000003
5.0250001 0.625 0.125
5.0250001 0.42500001 0.22499999
5.0250001 0.47499999 0.22499999
5.0250001 0.42500001 0.27500001
5.0250001 0.47499999 0.27500001
5.0250001 0.52499998 0.22499999
5.0250001 0.57499999 0.22499999
5.0250001 0.52499998 0.27500001
5.0250001 0.57499999 0.27500001
5.0250001 0.42500001 0.32499999
5.0250001 0.47499999 0.32499999
5.0250001 0.42500001 0.375
5.0250001 0.47499999 0.375
5.0250001 0.52499998 0.32499999
5.0250001 0.57499999 0.32499999
5.0250001 0.52499998 0.375
5.0250001 0.57499999 0.375
5.0250001 0.625 0.22499999
5.0250001 0.625 0.27500001
5.0250001 0.625 0.32499999
5.0250001 0.625 0.375
5.0250001 0.025 0.42500001
5.0250001 0.075000003 0.42500001
5.0250001 0.025 0.47499999
5.0250001 0.075000003 0.47499999
5.0250001 0.125 0.42500001
5.0250001 0.175 0.42500001
5.0250001 0.125 0.47499999
5.0250001 0.175 0.47499999
5.0250001 0.025 0.52499998
5.0250001 0.075000003 0.52499998
5.0250001 0.025 0.57499999
5.0250001 0.075000003 0.57499999
5.0250001 0.125 0.52499998
5.0250001 0.175 0.52499998
5.0250001 0.125 0.57499999
5.0250001 0.175 0.57499999
4.9749999 0.22499999 0.52499998
4.9749999 0.27500001 0.52499998
5.0250001 0.22499999 0.42500001
5.0250001 0.27500001 0.42500001
5.0250001 0.22499999 0.47499999
5.0250001 0.27500001 0.47499999
5.0250001 0.32499999 0.42500001
5.0250001 0.375 0.42500001
5.0250001 0.32499999 0.47499999
5.0250001 0.375 0.47499999
5.0250001 0.22499999 0.52499998
5.0250001 0.27500001 0.52499998
5.0250001 0.22499999 0.57499999
5.0250001 0.27500001 0.57499999
5.0250001 0.32499999 0.52499998
5.0250001 0.375 0.52499998
5.0250001 0.32499999 0.57499999
5.0250001 0.375 0.57499999
4.9749999 0.175 0.72500002
5.0250001 0.025 0.625
5.0250001 0.075000003 0.625
5.0250001 0.025 0.67500001
5.0250001 0.075000003 0.67500001
5.0250001 0.125 0.625
5.0250001 0.175 0.625
5.0250001 0.125 0.67500001
5.0250001 0.175 0.67500001
5.0250001 0.025 0.72500002
5.0250001 0.075000003 0.72500002
5.0250001 0.025 0.77499998
5.0250001 0.075000003 0.77499998
5.0250001 0.125 0.72500002
5.0250001 0.175 0.72500002
5.0250001 0.125 0.77499998
5.0250001 0.175 0.77499998
5.0250001 0.22499999 0.625
5.0250001 0.27500001 0.625
5.0250001 0.22499999 0.67500001
5.0250001 0.27500001 0.67500001
5.0250001 0.32499999 0.625
5.0250001 0.375 0.625
5.0250001 0.32499999 0.67500001
5.0250001 0.375 0.67500001
5.0250001 0.22499999 0.72500002
5.0250001 0.27500001 0.72500002
5.0250001 0.22499999 0.77499998
5.0250001 0.27500001 0.77499998
5.0250001 0.32499999 0.72500002
5.0250001 0.375 0.72500002
5.0250001 0.32499999 0.77499998
5.0250001 0.375 0.77499998
5.0250001 0.42500001 0.42500001
5.0250001 0.47499999 0.42500001
5.0250001 0.42500001 0.47499999
5.0250001 0.47499999 0.47499999
5.0250001 0.52499998 0.42500001
5.0250001 0.57499999 0.42500001
5.0250001 0.52499998 0.47499999
5.0250001 0.57499999 0.47499999
5.0250001 0.42500001 0.52499998
5.0250001 0.47499999 0.52499998
5.0250001 0.42500001 0.57499999
5.0250001 0.47499999 0.57499999
5.0250001 0.52499998 0.52499998
5.0250001 0.52499998 0.57499999
5.0250001 0.57499999 0.57499999
5.0250001 0.42500001 0.625
5.0250001 0.47499999 0.625
5.0250001 0.42500001 0.67500001
5.0250001 0.47499999 0.67500001
5.0250001 0.52499998 0.625
5.0250001 0.57499999 0.625
5.0250001 0.52499998 0.67500001
5.0250001 0.57499999 0.67500001
5.0250001 0.42500001 0.72500002
5.0250001 0.47499999 0.72500002
5.0250001 0.42500001 0.77499998
5.0250001 0.47499999 0.77499998
5.0250001 0.52499998 0.72500002
5.0250001 0.57499999 0.72500002
5.0250001 0.52499998 0.77499998
5.0250001 0.57499999 0.77499998
5.0250001 0.025 0.82499999
5.0250001 0.075000003 0.82499999
5.0250001 0.025 0.875
5.0250001 0.075000003 0.875
5.0250001 0.125 0.82499999
5.0250001 0.175 0.82499999
5.0250001 0.125 0.875
5.0250001 0.175 0.875
5.0250001 0.025 0.92500001
5.0250001 0.075000003 0.92500001
5.0250001 0.025 0.97500002
5.0250001 0.075000003 0.97500002
5.0250001 0.125 0.92500001
5.0250001 0.175 0.92500001
5.0250001 0.125 0.97500002
5.0250001 0.175 0.97500002
5.0250001 0.22499999 0.82499999
5.0250001 0.27500001 0.82499999
5.0250001 0.22499999 0.875
5.0250001 0.27500001 0.875
5.0250001 0.32499999 0.82499999
5.0250001 0.375 0.82499999
5.0250001 0.32499999 0.875
5.0250001 0.375 0.875
5.0250001 0.22499999 0.92500001
5.0250001 0.27500001 0.92500001
5.0250001 0.22499999 0.97500002
5.0749998 0.22499999 0.97500002
5.0250001 0.27500001 0.97500002
5.0749998 0.27500001 0.97500002
5.0250001 0.32499999 0.92500001
5.0250001 0.375 0.92500001
5.0250001 0.32499999 0.97500002
5.0749998 0.32499999 0.97500002
5.0250001 0.375 0.97500002
5.0250001 0.025 1.025
5.0250001 0.075000003 1.025
5.0250001 0.025 1.075
5.0250001 0.075000003 1.075
5.0250001 0.125 1.025
5.0250001 0.175 1.025
5.0250001 0.125 1.075
5.0749998 0.125 1.075
5.0250001 0.175 1.075
5.0749998 0.175 1.075
5.0250001 0.025 1.125
5.0250001 0.075000003 1.125
5.0749998 0.075000003 1.125
5.0250001 0.025 1.175
5.0749998 0.025 1.175
5.0250001 0.075000003 1.175
5.0749998 0.075000003 1.175
5.0250001 0.125 1.125
5.0749998 0.125 1.125
5.0250001 0.175 1.125
5.0250001 0.125 1.175
5.0749998 0.125 1.175
5.0250001 0.175 1.175
5.0749998 0.175 1.175
5.0250001 0.22499999 1.025
5.0250001 0.27500001 1.025
5.0250001 0.22499999 1.075
5.0250001 0.27500001 1.075
5.0250001 0.32499999 1.025
5.0250001 0.375 1.025
5.0250001 0.32499999 1.075
5.0749998 0.32499999 1.075
5.0250001 0.375 1.075
5.0250001 0.22499999 1.125
5.0250001 0.27500001 1.125
5.0250001 0.22499999 1.175
5.0250001 0.27500001 1.175
5.0250001 0.32499999 1.125
5.0250001 0.375 1.125
5.0250001 0.32499999 1.175
5.0749998 0.32499999 1.175
5.0250001 0.375 1.175
5.0749998 0.375 1.175
5.0250001 0.42500001 0.82499999
5.0250001 0.47499999 0.82499999
5.0250001 0.42500001 0.875
5.0250001 0.47499999 0.875
5.0250001 0.52499998 0.82499999
5.0250001 0.57499999 0.82499999
5.0250001 0.52499998 0.875
5.0250001 0.57499999 0.875
5.0250001 0.42500001 0.92500001
5.0250001 0.47499999 0.92500001
5.0250001 0.42500001 0.97500002
5.0250001 0.47499999 0.97500002
5.0250001 0.52499998 0.92500001
5.0250001 0.57499999 0.92500001
5.0250001 0.52499998 0.97500002
5.0749998 0.52499998 0.97500002
5.0250001 0.57499999 0.97500002
5.0749998 0.57499999 0.97500002
5.0250001 0.625 0.97500002
5.0250001 0.42500001 1.025
5.0250001 0.47499999 1.025
5.0250001 0.42500001 1.075
5.0749998 0.42500001 1.075
5.0250001 0.47499999 1.075
5.0250001 0.52499998 1.025
5.0250001 0.57499999 1.025
5.0250001 0.52499998 1.075
5.0250001 0.57499999 1.075
5.0749998 0.57499999 1.075
5.0250001 0.42500001 1.125
5.0250001 0.47499999 1.125
5.0250001 0.42500001 1.175
5.0749998 0.42500001 1.175
5.0250001 0.47499999 1.175
5.0749998 0.47499999 1.175
5.0250001 0.52499998 1.125
5.0749998 0.52499998 1.125
5.0250001 0.57499999 1.125
5.0749998 0.57499999 1.125
5.0250001 0.52499998 1.175
5.0749998 0.52499998 1.175
5.0250001 0.57499999 1.175
5.0749998 0.57499999 1.175
5.0250001 0.625 1.025
5.0250001 0.625 1.075
5.0749998 0.625 1.075
5.0250001 0.67500001 1.075
5.0749998 0.67500001 1.075
5.0250001 0.625 1.125
5.0749998 0.625 1.125
5.0749998 0.67500001 1.125
5.0250001 0.625 1.175
5.0749998 0.625 1.175
5.0250001 0.67500001 1.175
5.0749998 0.67500001 1.175
5.0749998 0.72500002 1.125
5.0749998 0.72500002 1.175
5.0250001 0.025 1.225
5.0749998 0.025 1.225
5.0250001 0.075000003 1.225
5.0749998 0.075000003 1.225
5.0250001 0.025 1.275
5.0250001 0.075000003 1.275
5.0250001 0.125 1.225
5.0749998 0.125 1.225
5.0250001 0.175 1.225
5.0749998 0.175 1.225
5.0250001 0.125 1.275
5.0250001 0.175 1.275
5.0250001 0.025 1.325
5.0749998 0.025 1.325
5.0250001 0.075000003 1.325
5.0749998 0.075000003 1.325
5.0250001 0.025 1.375
5.0250001 0.075000003 1.375
5.0250001 0.125 1.325
5.0749998 0.125 1.325
5.0250001 0.175 1.325
5.0749998 0.175 1.325
5.0250001 0.125 1.375
5.0250001 0.175 1.375
5.0250001 0.22499999 1.225
5.0749998 0.22499999 1.225
5.0250001 0.27500001 1.225
5.0749998 0.27500001 1.225
5.0250001 0.22499999 1.275
5.0250001 0.27500001 1.275
5.0250001 0.32499999 1.225
5.0749998 0.32499999 1.225
5.0250001 0.375 1.225
5.0250001 0.32499999 1.275
5.0250001 0.375 1.275
5.0250001 0.22499999 1.325
5.0749998 0.22499999 1.325
5.0250001 0.27500001 1.325
5.0749998 0.27500001 1.325
5.0250001 0.22499999 1.375
5.0250001 0.27500001 1.375
5.0250001 0.32499999 1.325
5.0749998 0.32499999 1.325
5.0250001 0.375 1.325
5.0749998 0.375 1.325
5.0250001 0.32499999 1.375
5.0250001 0.375 1.375
5.0250001 0.025 1.425
5.0749998 0.025 1.425
5.0250001 0.075000003 1.425
5.0749998 0.075000003 1.425
5.0250001 0.025 1.475
5.0749998 0.025 1.475
5.0250001 0.075000003 1.475
5.0749998 0.075000003 1.475
5.0250001 0.125 1.425
5.0749998 0.125 1.425
5.0250001 0.175 1.425
5.0749998 0.175 1.425
5.0250001 0.125 1.475
5.0749998 0.125 1.475
5.0250001 0.175 1.475
5.0749998 0.175 1.475
5.0250001 0.025 1.525
5.0749998 0.025 1.525
5.0250001 0.075000003 1.525
5.0749998 0.075000003 1.525
5.0250001 0.025 1.575
5.0749998 0.025 1.575
5.0250001 0.075000003 1.575
5.0749998 0.075000003 1.575
5.0250001 0.125 1.525
5.0749998 0.125 1.525
5.0250001 0.175 1.525
5.0749998 0.175 1.525
5.0250001 0.125 1.575
5.0749998 0.125 1.575
5.0250001 0.175 1.575
5.0749998 0.175 1.575
5.0250001 0.22499999 1.425
5.0749998 0.22499999 1.425
5.0250001 0.27500001 1.425
5.0749998 0.27500001 1.425
5.0250001 0.22499999 1.475
5.0749998 0.22499999 1.475
5.0250001 0.27500001 1.475
5.0749998 0.27500001 1.475
5.0250001 0.32499999 1.425
5.0749998 0.32499999 1.425
5.0250001 0.375 1.425
5.0749998 0.375 1.425
5.0250001 0.32499999 1.475
5.0749998 0.32499999 1.475
5.0250001 0.375 1.475
5.0749998 0.375 1.475
5.0250001 0.22499999 1.525
5.0749998 0.22499999 1.525
5.0250001 0.27500001 1.525
5.0749998 0.27500001 1.525
5.0250001 0.22499999 1.575
5.0749998 0.22499999 1.575
5.0250001 0.27500001 1.575
5.0749998 0.27500001 1.575
5.0250001 0.32499999 1.525
5.0749998 0.32499999 1.525
5.0250001 0.375 1.525
5.0749998 0.375 1.525
5.0250001 0.32499999 1.575
5.0749998 0.32499999 1.575
5.0250001 0.375 1.575
5.0749998 0.375 1.575
5.0250001 0.42500001 1.225
5.0749998 0.42500001 1.225
5.0250001 0.47499999 1.225
5.0749998 0.47499999 1.225
5.0250001 0.42500001 1.275
5.0250001 0.47499999 1.275
5.0250001 0.52499998 1.225
5.0749998 0.52499998 1.225
5.0250001 0.57499999 1.225
5.0749998 0.57499999 1.225
5.0250001 0.52499998 1.275
5.0250001 0.57499999 1.275
5.0250001 0.42500001 1.325
5.0749998 0.42500001 1.325
5.0250001 0.47499999 1.325
5.0749998 0.47499999 1.325
5.0250001 0.42500001 1.375
5.0250001 0.47499999 1.375
5.0250001 0.52499998 1.325
5.0749998 0.52499998 1.325
5.0250001 0.57499999 1.325
5.0749998 0.57499999 1.325
5.0250001 0.52499998 1.375
5.0250001 0.57499999 1.375
5.0250001 0.625 1.225
5.0749998 0.625 1.225
5.0250001 0.67500001 1.225
5.0749998 0.67500001 1.225
5.0250001 0.625 1.275
5.0250001 0.67500001 1.275
5.0749998 0.72500002 1.225
5.0250001 0.625 1.325
5.0749998 0.625 1.325
5.0250001 0.67500001 1.325
5.0749998 0.67500001 1.325
5.0250001 0.625 1.375
5.0250001 0.67500001 1.375
5.0749998 0.72500002 1.325
5.0749998 0.77499998 1.325
5.0250001 0.42500001 1.425
5.0749998 0.42500001 1.425
5.0250001 0.47499999 1.425
5.0749998 0.47499999 1.425
5.0250001 0.42500001 1.475
5.0749998 0.42500001 1.475
5.0250001 0.47499999 1.475
5.0749998 0.47499999 1.475
5.0250001 0.52499998 1.425
5.0749998 0.52499998 1.425
5.0250001 0.57499999 1.425
5.0749998 0.57499999 1.425
5.0250001 0.52499998 1.475
5.0749998 0.52499998 1.475
5.0250001 0.57499999 1.475
5.0749998 0.57499999 1.475
5.0250001 0.42500001 1.525
5.0749998 0.42500001 1.525
5.0250001 0.47499999 1.525
5.0749998 0.47499999 1.525
5.0250001 0.42500001 1.575
5.0749998 0.42500001 1.575
5.0250001 0.47499999 1.575
5.0749998 0.47499999 1.575
5.0250001 0.52499998 1.525
5.0749998 0.52499998 1.525
5.0250001 0.57499999 1.525
5.0749998 0.57499999 1.525
5.0250001 0.52499998 1.575
5.0749998 0.52499998 1.575
5.0250001 0.57499999 1.575
5.0749998 0.57499999 1.575
5.0250001 0.625 1.425
5.0749998 0.625 1.425
5.0250001 0.67500001 1.425
5.0749998 0.67500001 1.425
5.0250001 0.625 1.475
5.0749998 0.625 1.475
5.0250001 0.67500001 1.475
5.0749998 0.67500001 1.475
5.0250001 0.72500002 1.425
5.0250001 0.77499998 1.425
5.0250001 0.72500002 1.475
5.0250001 0.77499998 1.475
5.0250001 0.625 1.525
5.0749998 0.625 1.525
5.0250001 0.67500001 1.525
5.0749998 0.67500001 1.525
5.0250001 0.625 1.575
5.0749998 0.625 1.575
5.0250001 0.67500001 1.575
5.0749998 0.67500001 1.575
5.0250001 0.72500002 1.525
5.0250001 0.77499998 1.525
5.0749998 0.72500002 1.575
5.0749998 0.77499998 1.575
3.875 0.025 2.375
3.925 0.075000003 2.375
4.5250001 0.025 2.375
4.5250001 0.075000003 2.375
4.5250001 0.125 2.375
4.5250001 0.175 2.375
4.5250001 0.22499999 2.375
4.5250001 0.27500001 2.375
4.5250001 0.32499999 2.375
4.5250001 0.375 2.375
4.6750002 0.375 2.375
4.6750002 0.42500001 2.375
3.2249999 1.575 1.925
4.6750002 0.875 2.375
4.6750002 0.92500001 2.375
4.6750002 1.025 2.375
4.6750002 1.075 2.375
4.6750002 1.125 2.375
4.6750002 1.175 2.375
4.6750002 1.425 2.375
4.6750002 1.475 2.375
3.2249999 0.025 2.5250001
3.2249999 0.075000003 2.5250001
3.325 0.025 2.5250001
3.375 0.025 2.5250001
3.325 0.075000003 2.5250001
3.375 0.075000003 2.5250001
3.2249999 0.125 2.5250001
3.2249999 0.175 2.5250001
3.325 0.125 2.5250001
3.375 0.125 2.5250001
3.325 0.175 2.5250001
3.375 0.175 2.5250001
3.4749999 0.025 2.425
3.4749999 0.075000003 2.425
3.575 0.025 2.425
3.575 0.075000003 2.425
3.4749999 0.125 2.425
3.4749999 0.175 2.425
3.575 0.125 2.425
3.575 0.175 2.425
3.425 0.025 2.5250001
3.4749999 0.025 2.5250001
3.425 0.075000003 2.5250001
3.4749999 0.075000003 2.5250001
3.5250001 0.025 2.5250001
3.5250001 0.075000003 2.5250001
3.575 0.075000003 2.5250001
3.425 0.125 2.5250001
3.4749999 0.125 2.5250001
3.425 0.175 2.5250001
3.4749999 0.175 2.5250001
3.5250001 0.125 2.5250001
3.575 0.125 2.5250001
3.5250001 0.175 2.5250001
3.575 0.175 2.5250001
3.2249999 0.22499999 2.5250001
3.2249999 0.27500001 2.5250001
3.325 0.22499999 2.5250001
3.375 0.22499999 2.5250001
3.325 0.27500001 2.5250001
3.2249999 0.32499999 2.5250001
3.2249999 0.375 2.5250001
3.2750001 0.375 2.5250001
3.325 0.32499999 2.5250001
3.325 0.375 2.5250001
3.375 0.375 2.5250001
3.4749999 0.22499999 2.425
3.4749999 0.27500001 2.425
3.575 0.22499999 2.425
3.575 0.27500001 2.425
3.4749999 0.32499999 2.425
3.4749999 0.375 2.425
3.575 0.32499999 2.425
3.575 0.375 2.425
3.425 0.22499999 2.5250001
3.4749999 0.22499999 2.5250001
3.425 0.27500001 2.5250001
3.4749999 0.27500001 2.5250001
3.5250001 0.22499999 2.5250001
3.5250001 0.27500001 2.5250001
3.575 0.27500001 2.5250001
3.425 0.32499999 2.5250001
3.4749999 0.32499999 2.5250001
3.425 0.375 2.5250001
3.4749999 0.375 2.5250001
3.5250001 0.32499999 2.5250001
3.575 0.32499999 2.5250001
3.5250001 0.375 2.5250001
3.575 0.375 2.5250001
3.675 0.025 2.425
3.675 0.075000003 2.425
3.7249999 0.025 2.425
3.7249999 0.075000003 2.425
3.675 0.125 2.425
3.675 0.175 2.425
3.7249999 0.125 2.425
3.7249999 0.175 2.425
3.625 0.025 2.5250001
3.675 0.025 2.5250001
3.625 0.075000003 2.5250001
3.675 0.075000003 2.5250001
3.7249999 0.025 2.5250001
3.7249999 0.075000003 2.5250001
3.625 0.125 2.5250001
3.675 0.175 2.5250001
3.7249999 0.125 2.5250001
3.7249999 0.175 2.5250001
3.825 0.025 2.425
3.825 0.075000003 2.425
3.825 0.125 2.425
3.875 0.125 2.425
3.825 0.175 2.425
3.925 0.125 2.425
3.925 0.175 2.425
3.825 0.025 2.5250001
3.825 0.075000003 2.5250001
3.825 0.125 2.5250001
3.825 0.175 2.5250001
3.625 0.22499999 2.5250001
3.675 0.22499999 2.5250001
3.625 0.27500001 2.5250001
3.675 0.27500001 2.5250001
3.7249999 0.22499999 2.5250001
3.7249999 0.27500001 2.5250001
3.675 0.32499999 2.5250001
3.625 0.375 2.5250001
3.675 0.375 2.5250001
3.7249999 0.32499999 2.5250001
3.7249999 0.375 2.5250001
3.825 0.22499999 2.425
3.825 0.27500001 2.425
3.925 0.22499999 2.425
3.925 0.27500001 2.425
3.875 0.32499999 2.425
3.875 0.375 2.425
3.925 0.32499999 2.425
3.925 0.375 2.425
3.825 0.22499999 2.5250001
3.875 0.22499999 2.5250001
3.825 0.27500001 2.5250001
3.875 0.27500001 2.5250001
3.925 0.22499999 2.5250001
3.925 0.27500001 2.5250001
3.825 0.32499999 2.5250001
3.875 0.32499999 2.5250001
3.825 0.375 2.5250001
3.875 0.375 2.5250001
3.925 0.32499999 2.5250001
3.925 0.375 2.5250001
3.9749999 0.375 2.5250001
3.2249999 0.42500001 2.5250001
3.2750001 0.42500001 2.5250001
3.2249999 0.47499999 2.5250001
3.2750001 0.47499999 2.5250001
3.325 0.42500001 2.5250001
3.375 0.42500001 2.5250001
3.325 0.47499999 2.5250001
3.375 0.47499999 2.5250001
3.2249999 0.52499998 2.5250001
3.2750001 0.52499998 2.5250001
3.2249999 0.57499999 2.5250001
3.2750001 0.57499999 2.5250001
3.325 0.52499998 2.5250001
3.375 0.52499998 2.5250001
3.325 0.57499999 2.5250001
3.375 0.57499999 2.5250001
3.4749999 0.42500001 2.425
3.4749999 0.47499999 2.425
3.575 0.42500001 2.425
3.575 0.47499999 2.425
3.4749999 0.52499998 2.425
3.4749999 0.57499999 2.425
3.575 0.52499998 2.425
3.575 0.57499999 2.425
3.425 0.42500001 2.5250001
3.4749999 0.42500001 2.5250001
3.425 0.47499999 2.5250001
3.4749999 0.47499999 2.5250001
3.5250001 0.42500001 2.5250001
3.5250001 0.47499999 2.5250001
3.425 0.52499998 2.5250001
3.4749999 0.52499998 2.5250001
3.425 0.57499999 2.5250001
3.4749999 0.57499999 2.5250001
3.5250001 0.52499998 2.5250001
3.5250001 0.57499999 2.5250001
3.2249999 0.67500001 2.4749999
3.2750001 0.72500002 2.4749999
3.2750001 0.77499998 2.4749999
3.2249999 0.625 2.5250001
3.2750001 0.625 2.5250001
3.2249999 0.67500001 2.5250001
3.2750001 0.67500001 2.5250001
3.325 0.625 2.5250001
3.325 0.67500001 2.5250001
3.2249999 0.72500002 2.5250001
3.2750001 0.72500002 2.5250001
3.2249999 0.77499998 2.5250001
3.2750001 0.77499998 2.5250001
3.325 0.72500002 2.5250001
3.325 0.77499998 2.5250001
3.4749999 0.625 2.425
3.4749999 0.67500001 2.425
3.575 0.625 2.425
3.575 0.67500001 2.425
3.4749999 0.72500002 2.425
3.4749999 0.77499998 2.425
3.575 0.72500002 2.425
3.575 0.77499998 2.425
3.425 0.625 2.5250001
3.4749999 0.625 2.5250001
3.425 0.67500001 2.5250001
3.4749999 0.67500001 2.5250001
3.5250001 0.625 2.5250001
3.5250001 0.67500001 2.5250001
3.425 0.72500002 2.5250001
3.4749999 0.72500002 2.5250001
3.425 0.77499998 2.5250001
3.4749999 0.77499998 2.5250001
3.5250001 0.72500002 2.5250001
3.5250001 0.77499998 2.5250001
3.625 0.42500001 2.5250001
3.675 0.42500001 2.5250001
3.625 0.47499999 2.5250001
3.675 0.47499999 2.5250001
3.7249999 0.42500001 2.5250001
3.7249999 0.47499999 2.5250001
3.625 0.52499998 2.5250001
3.675 0.52499998 2.5250001
3.625 0.57499999 2.5250001
3.675 0.57499999 2.5250001
3.7249999 0.52499998 2.5250001
3.7249999 0.57499999 2.5250001
3.875 0.42500001 2.425
3.875 0.47499999 2.425
3.925 0.42500001 2.425
3.925 0.47499999 2.425
3.875 0.52499998 2.425
3.875 0.57499999 2.425
3.925 0.52499998 2.425
3.925 0.57499999 2.425
3.825 0.42500001 2.5250001
3.875 0.42500001 2.5250001
3.825 0.47499999 2.5250001
3.875 0.47499999 2.5250001
3.925 0.42500001 2.5250001
3.9749999 0.42500001 2.5250001
3.925 0.47499999 2.5250001
3.9749999 0.47499999 2.5250001
3.825 0.52499998 2.5250001
3.875 0.52499998 2.5250001
3.825 0.57499999 2.5250001
3.875 0.57499999 2.5250001
3.925 0.52499998 2.5250001
3.925 0.57499999 2.5250001
3.9749999 0.57499999 2.5250001
3.625 0.625 2.5250001
3.675 0.625 2.5250001
3.625 0.67500001 2.5250001
3.675 0.67500001 2.5250001
3.7249999 0.625 2.5250001
3.7249999 0.67500001 2.5250001
3.625 0.72500002 2.5250001
3.675 0.72500002 2.5250001
3.625 0.77499998 2.5250001
3.675 0.77499998 2.5250001
3.7249999 0.72500002 2.5250001
3.7249999 0.77499998 2.5250001
3.875 0.625 2.425
3.875 0.67500001 2.425
3.925 0.625 2.425
3.925 0.67500001 2.425
3.875 0.72500002 2.425
3.875 0.77499998 2.425
3.925 0.72500002 2.425
3.925 0.77499998 2.425
3.825 0.625 2.5250001
3.875 0.625 2.5250001
3.825 0.67500001 2.5250001
3.875 0.67500001 2.5250001
3.925 0.625 2.5250001
3.9749999 0.625 2.5250001
3.925 0.67500001 2.5250001
3.9749999 0.67500001 2.5250001
3.825 0.72500002 2.5250001
3.875 0.72500002 2.5250001
3.825 0.77499998 2.5250001
3.875 0.77499998 2.5250001
3.925 0.72500002 2.5250001
3.9749999 0.72500002 2.5250001
3.925 0.77499998 2.5250001
3.9749999 0.77499998 2.5250001
4.1750002 0.025 2.5250001
4.1750002 0.075000003 2.5250001
4.1750002 0.125 2.5250001
4.1750002 0.175 2.5250001
4.2750001 0.025 2.425
4.2750001 0.075000003 2.425
4.2750001 0.125 2.425
4.2750001 0.175 2.425
4.2249999 0.025 2.5250001
4.2249999 0.075000003 2.5250001
4.3249998 0.025 2.5250001
4.375 0.025 2.5250001
4.3249998 0.075000003 2.5250001
4.375 0.075000003 2.5250001
4.2249999 0.125 2.5250001
4.2750001 0.125 2.5250001
4.2249999 0.175 2.5250001
4.2750001 0.175 2.5250001
4.375 0.125 2.5250001
4.375 0.175 2.5250001
4.125 0.27500001 2.425
4.125 0.32499999 2.425
4.125 0.375 2.425
4.0250001 0.27500001 2.5250001
4.0749998 0.27500001 2.5250001
4.1750002 0.22499999 2.5250001
4.125 0.27500001 2.5250001
4.1750002 0.27500001 2.5250001
4.0250001 0.32499999 2.5250001
4.0749998 0.32499999 2.5250001
4.0250001 0.375 2.5250001
4.0749998 0.375 2.5250001
4.1750002 0.32499999 2.5250001
4.125 0.375 2.5250001
4.1750002 0.375 2.5250001
4.2750001 0.22499999 2.425
4.2249999 0.27500001 2.425
4.2750001 0.27500001 2.425
4.2249999 0.32499999 2.425
4.2750001 0.32499999 2.425
4.2249999 0.375 2.425
4.2750001 0.375 2.425
4.2249999 0.22499999 2.5250001
4.2249999 0.27500001 2.5250001
4.3249998 0.22499999 2.5250001
4.375 0.22499999 2.5250001
4.3249998 0.27500001 2.5250001
4.375 0.27500001 2.5250001
4.2249999 0.32499999 2.5250001
4.2249999 0.375 2.5250001
4.3249998 0.32499999 2.5250001
4.375 0.32499999 2.5250001
4.3249998 0.375 2.5250001
4.375 0.375 2.5250001
4.4250002 0.075000003 2.425
4.4250002 0.125 2.425
4.4250002 0.175 2.425
4.4749999 0.025 2.5250001
4.4749999 0.075000003 2.5250001
4.5250001 0.025 2.5250001
4.5749998 0.025 2.5250001
4.5250001 0.075000003 2.5250001
4.4749999 0.125 2.5250001
4.4749999 0.175 2.5250001
4.5250001 0.125 2.5250001
4.5250001 0.175 2.5250001
4.6750002 0.025 2.5250001
4.6750002 0.075000003 2.5250001
4.7249999 0.025 2.5250001
4.7750001 0.025 2.5250001
4.7249999 0.075000003 2.5250001
4.7750001 0.075000003 2.5250001
4.6750002 0.125 2.5250001
4.6750002 0.175 2.5250001
4.7249999 0.125 2.5250001
4.7750001 0.125 2.5250001
4.7249999 0.175 2.5250001
4.7750001 0.175 2.5250001
4.4749999 0.22499999 2.5250001
4.4749999 0.27500001 2.5250001
4.5250001 0.22499999 2.5250001
4.5749998 0.22499999 2.5250001
4.5250001 0.27500001 2.5250001
4.5749998 0.27500001 2.5250001
4.4749999 0.32499999 2.5250001
4.4749999 0.375 2.5250001
4.5250001 0.32499999 2.5250001
4.5749998 0.32499999 2.5250001
4.5250001 0.375 2.5250001
4.5749998 0.375 2.5250001
4.6750002 0.22499999 2.5250001
4.6750002 0.27500001 2.5250001
4.7249999 0.22499999 2.5250001
4.7750001 0.22499999 2.5250001
4.7249999 0.27500001 2.5250001
4.7750001 0.27500001 2.5250001
4.6750002 0.32499999 2.5250001
4.6750002 0.375 2.5250001
4.7249999 0.32499999 2.5250001
4.7750001 0.32499999 2.5250001
4.7249999 0.375 2.5250001
4.7750001 0.375 2.5250001
4.125 0.42500001 2.425
4.125 0.47499999 2.425
4.125 0.52499998 2.425
4.125 0.57499999 2.425
4.0250001 0.42500001 2.5250001
4.0749998 0.42500001 2.5250001
4.0250001 0.47499999 2.5250001
4.0749998 0.47499999 2.5250001
4.1750002 0.42500001 2.5250001
4.1750002 0.47499999 2.5250001
4.0250001 0.52499998 2.5250001
4.0749998 0.52499998 2.5250001
4.0250001 0.57499999 2.5250001
4.0749998 0.57499999 2.5250001
4.1750002 0.52499998 2.5250001
4.125 0.57499999 2.5250001
4.1750002 0.57499999 2.5250001
4.2249999 0.42500001 2.425
4.2750001 0.42500001 2.425
4.2249999 0.47499999 2.425
4.2750001 0.47499999 2.425
4.2249999 0.52499998 2.425
4.2750001 0.52499998 2.425
4.2249999 0.57499999 2.425
4.2750001 0.57499999 2.425
4.2249999 0.42500001 2.5250001
4.2249999 0.47499999 2.5250001
4.3249998 0.42500001 2.5250001
4.3249998 0.47499999 2.5250001
4.375 0.47499999 2.5250001
4.2249999 0.52499998 2.5250001
4.2249999 0.57499999 2.5250001
4.3249998 0.52499998 2.5250001
4.375 0.52499998 2.5250001
4.3249998 0.57499999 2.5250001
4.125 0.625 2.425
4.125 0.67500001 2.425
4.125 0.72500002 2.425
4.125 0.77499998 2.425
4.1750002 0.77499998 2.425
4.0250001 0.625 2.5250001
4.0749998 0.625 2.5250001
4.0250001 0.67500001 2.5250001
4.1750002 0.625 2.5250001
4.125 0.67500001 2.5250001
4.1750002 0.67500001 2.5250001
4.0250001 0.72500002 2.5250001
4.0749998 0.72500002 2.5250001
4.0250001 0.77499998 2.5250001
4.125 0.72500002 2.5250001
4.125 0.77499998 2.5250001
4.2249999 0.625 2.425
4.2750001 0.625 2.425
4.2249999 0.67500001 2.425
4.2750001 0.67500001 2.425
4.2249999 0.72500002 2.425
4.2750001 0.72500002 2.425
4.2249999 0.77499998 2.425
4.2750001 0.77499998 2.425
4.2249999 0.625 2.5250001
4.2249999 0.67500001 2.5250001
4.3249998 0.625 2.5250001
4.3249998 0.67500001 2.5250001
4.375 0.67500001 2.5250001
4.2249999 0.72500002 2.5250001
4.2249999 0.77499998 2.5250001
4.2750001 0.77499998 2.5250001
4.3249998 0.72500002 2.5250001
4.3249998 0.77499998 2.5250001
4.4250002 0.42500001 2.425
4.4250002 0.42500001 2.5250001
4.4749999 0.42500001 2.5250001
4.4749999 0.47499999 2.5250001
4.5749998 0.42500001 2.5250001
4.5749998 0.47499999 2.5250001
4.4749999 0.52499998 2.5250001
4.4250002 0.57499999 2.5250001
4.4749999 0.57499999 2.5250001
4.5250001 0.52499998 2.5250001
4.5749998 0.52499998 2.5250001
4.5250001 0.57499999 2.5250001
4.5749998 0.57499999 2.5250001
4.6750002 0.42500001 2.5250001
4.6750002 0.47499999 2.5250001
4.7249999 0.42500001 2.5250001
4.7750001 0.42500001 2.5250001
4.7249999 0.47499999 2.5250001
4.7750001 0.47499999 2.5250001
4.6750002 0.52499998 2.5250001
4.6750002 0.57499999 2.5250001
4.7249999 0.52499998 2.5250001
4.7750001 0.52499998 2.5250001
4.7249999 0.57499999 2.5250001
4.7750001 0.57499999 2.5250001
4.5749998 0.625 2.425
4.5749998 0.67500001 2.425
4.4250002 0.72500002 2.425
4.4250002 0.77499998 2.425
4.4250002 0.625 2.5250001
4.4749999 0.625 2.5250001
4.4749999 0.67500001 2.5250001
4.5250001 0.625 2.5250001
4.5749998 0.625 2.5250001
4.5250001 0.67500001 2.5250001
4.5749998 0.67500001 2.5250001
4.4250002 0.72500002 2.5250001
4.4749999 0.72500002 2.5250001
4.4250002 0.77499998 2.5250001
4.4749999 0.77499998 2.5250001
4.5250001 0.72500002 2.5250001
4.5749998 0.72500002 2.5250001
4.5250001 0.77499998 2.5250001
4.5749998 0.77499998 2.5250001
4.6750002 0.625 2.5250001
4.6750002 0.67500001 2.5250001
4.7750001 0.625 2.5250001
4.7750001 0.67500001 2.5250001
4.6750002 0.72500002 2.5250001
4.7249999 0.72500002 2.5250001
4.7750001 0.72500002 2.5250001
4.7750001 0.77499998 2.5250001
3.2249999 0.82499999 2.4749999
3.2249999 0.875 2.4749999
3.2750001 0.875 2.4749999
3.2249999 0.92500001 2.4749999
3.2750001 0.97500002 2.4749999
3.325 0.97500002 2.4749999
3.2249999 0.82499999 2.5250001
3.2750001 0.82499999 2.5250001
3.2249999 0.875 2.5250001
3.2750001 0.875 2.5250001
3.325 0.82499999 2.5250001
3.325 0.875 2.5250001
3.2249999 0.92500001 2.5250001
3.2750001 0.92500001 2.5250001
3.2249999 0.97500002 2.5250001
3.2750001 0.97500002 2.5250001
3.325 0.92500001 2.5250001
3.325 0.97500002 2.5250001
3.4749999 0.82499999 2.425
3.575 0.82499999 2.425
3.575 0.875 2.425
3.575 0.92500001 2.425
3.575 0.97500002 2.425
3.425 0.82499999 2.5250001
3.4749999 0.82499999 2.5250001
3.425 0.875 2.5250001
3.4749999 0.875 2.5250001
3.575 0.82499999 2.5250001
3.575 0.875 2.5250001
3.425 0.92500001 2.5250001
3.4749999 0.92500001 2.5250001
3.425 0.97500002 2.5250001
3.4749999 0.97500002 2.5250001
3.5250001 0.92500001 2.5250001
3.575 0.97500002 2.5250001
3.2750001 1.025 2.4749999
3.2750001 1.075 2.4749999
3.325 1.025 2.4749999
3.2750001 1.125 2.4749999
3.2750001 1.175 2.4749999
3.2249999 1.025 2.5250001
3.2750001 1.025 2.5250001
3.2249999 1.075 2.5250001
3.2750001 1.075 2.5250001
3.325 1.025 2.5250001
3.325 1.075 2.5250001
3.2249999 1.125 2.5250001
3.2750001 1.125 2.5250001
3.2249999 1.175 2.5250001
3.2750001 1.175 2.5250001
3.2249999 1.175 2.575
3.325 1.125 2.5250001
3.325 1.175 2.5250001
3.575 1.025 2.425
3.575 1.075 2.425
3.575 1.125 2.425
3.575 1.175 2.425
3.425 1.025 2.5250001
3.4749999 1.025 2.5250001
3.425 1.075 2.5250001
3.4749999 1.075 2.5250001
3.5250001 1.025 2.5250001
3.575 1.025 2.5250001
3.5250001 1.075 2.5250001
3.575 1.075 2.5250001
3.425 1.125 2.5250001
3.4749999 1.125 2.5250001
3.425 1.175 2.5250001
3.4749999 1.175 2.5250001
3.575 1.125 2.5250001
3.5250001 1.175 2.5250001
3.575 1.175 2.5250001
3.625 0.82499999 2.5250001
3.675 0.82499999 2.5250001
3.625 0.875 2.5250001
3.675 0.875 2.5250001
3.7249999 0.82499999 2.5250001
3.7249999 0.875 2.5250001
3.625 0.92500001 2.5250001
3.675 0.92500001 2.5250001
3.625 0.97500002 2.5250001
3.675 0.97500002 2.5250001
3.7249999 0.92500001 2.5250001
3.7249999 0.97500002 2.5250001
3.875 0.82499999 2.425
3.875 0.875 2.425
3.925 0.82499999 2.425
3.925 0.875 2.425
3.875 0.92500001 2.425
3.875 0.97500002 2.425
3.925 0.92500001 2.425
3.925 0.97500002 2.425
3.825 0.82499999 2.5250001
3.875 0.82499999 2.5250001
3.825 0.875 2.5250001
3.875 0.875 2.5250001
3.925 0.82499999 2.5250001
3.9749999 0.82499999 2.5250001
3.925 0.875 2.5250001
3.9749999 0.875 2.5250001
3.825 0.92500001 2.5250001
3.875 0.92500001 2.5250001
3.825 0.97500002 2.5250001
3.875 0.97500002 2.5250001
3.925 0.92500001 2.5250001
3.9749999 0.92500001 2.5250001
3.925 0.97500002 2.5250001
3.9749999 0.97500002 2.5250001
3.7750001 1.175 2.425
3.625 1.025 2.5250001
3.675 1.025 2.5250001
3.625 1.075 2.5250001
3.675 1.075 2.5250001
3.7249999 1.025 2.5250001
3.7249999 1.075 2.5250001
3.625 1.125 2.5250001
3.675 1.125 2.5250001
3.625 1.175 2.5250001
3.675 1.175 2.5250001
3.7249999 1.125 2.5250001
3.7249999 1.175 2.5250001
3.7750001 1.175 2.5250001
3.875 1.025 2.425
3.875 1.075 2.425
3.925 1.025 2.425
3.925 1.075 2.425
3.875 1.125 2.425
3.875 1.175 2.425
3.925 1.125 2.425
3.9749999 1.125 2.425
3.925 1.175 2.425
3.9749999 1.175 2.425
3.825 1.025 2.5250001
3.875 1.025 2.5250001
3.875 1.075 2.5250001
3.825 1.025 2.575
3.825 1.075 2.575
3.9749999 1.025 2.5250001
3.925 1.075 2.5250001
3.9749999 1.075 2.5250001
3.875 1.125 2.5250001
3.875 1.175 2.5250001
3.825 1.125 2.575
3.825 1.175 2.575
3.925 1.125 2.5250001
3.9749999 1.125 2.5250001
3.925 1.175 2.5250001
3.9749999 1.175 2.5250001
3.2750001 1.225 2.4749999
3.2750001 1.275 2.4749999
3.2750001 1.325 2.4749999
3.2750001 1.375 2.4749999
3.325 1.325 2.4749999
3.325 1.375 2.4749999
3.2249999 1.225 2.5250001
3.2750001 1.225 2.5250001
3.2750001 1.275 2.5250001
3.2249999 1.225 2.575
3.2249999 1.275 2.575
3.325 1.225 2.5250001
3.325 1.275 2.5250001
3.375 1.225 2.575
3.2750001 1.325 2.5250001
3.2750001 1.375 2.5250001
3.2249999 1.325 2.575
3.2249999 1.375 2.575
3.325 1.325 2.5250001
3.325 1.375 2.5250001
3.375 1.325 2.575
3.375 1.375 2.575
3.575 1.225 2.425
3.575 1.275 2.425
3.5250001 1.275 2.4749999
3.575 1.325 2.425
3.5250001 1.325 2.4749999
3.5250001 1.375 2.4749999
3.425 1.225 2.5250001
3.4749999 1.225 2.5250001
3.425 1.275 2.5250001
3.4749999 1.275 2.5250001
3.5250001 1.225 2.5250001
3.575 1.225 2.5250001
3.575 1.275 2.5250001
3.575 1.225 2.575
3.425 1.325 2.5250001
3.4749999 1.325 2.5250001
3.4749999 1.375 2.5250001
3.425 1.375 2.575
3.5250001 1.325 2.5250001
3.575 1.325 2.5250001
3.5250001 1.375 2.5250001
3.575 1.375 2.575
3.2750001 1.425 2.4749999
3.2750001 1.475 2.4749999
3.375 1.475 2.425
3.325 1.425 2.4749999
3.325 1.475 2.4749999
3.2750001 1.525 2.4749999
3.375 1.525 2.425
3.325 1.575 2.425
3.375 1.575 2.425
3.325 1.525 2.4749999
3.2750001 1.425 2.5250001
3.2750001 1.425 2.575
3.2750001 1.475 2.575
3.375 1.425 2.575
3.375 1.475 2.575
3.2750001 1.525 2.575
3.375 1.525 2.575
3.5250001 1.425 2.4749999
3.5250001 1.475 2.4749999
3.4749999 1.525 2.425
3.5250001 1.525 2.425
3.575 1.525 2.425
3.4749999 1.425 2.5250001
3.4749999 1.475 2.5250001
3.425 1.425 2.575
3.425 1.475 2.575
3.5250001 1.425 2.5250001
3.5250001 1.475 2.5250001
3.575 1.475 2.5250001
3.575 1.425 2.575
3.4749999 1.525 2.5250001
3.425 1.525 2.575
3.5250001 1.525 2.5250001
3.575 1.525 2.5250001
3.7249999 1.225 2.425
3.7249999 1.275 2.425
3.7249999 1.325 2.425
3.7249999 1.375 2.425
3.625 1.225 2.5250001
3.675 1.225 2.5250001
3.625 1.275 2.5250001
3.675 1.275 2.5250001
3.7750001 1.225 2.5250001
3.7750001 1.275 2.5250001
3.625 1.325 2.5250001
3.675 1.325 2.5250001
3.625 1.375 2.5250001
3.675 1.375 2.5250001
3.7750001 1.325 2.5250001
3.7750001 1.375 2.5250001
3.875 1.225 2.425
3.875 1.275 2.425
3.925 1.225 2.425
3.925 1.275 2.425
3.875 1.325 2.425
3.875 1.375 2.425
3.925 1.325 2.425
3.9749999 1.375 2.425
3.825 1.225 2.5250001
3.875 1.225 2.5250001
3.875 1.275 2.5250001
3.825 1.275 2.575
3.925 1.225 2.5250001
3.9749999 1.225 2.5250001
3.925 1.275 2.5250001
3.9749999 1.275 2.5250001
3.875 1.325 2.5250001
3.875 1.375 2.5250001
3.825 1.325 2.575
3.875 1.325 2.575
3.825 1.375 2.575
3.925 1.325 2.5250001
3.9749999 1.325 2.5250001
3.925 1.375 2.5250001
3.9749999 1.375 2.5250001
3.9749999 1.325 2.575
3.625 1.475 2.425
3.625 1.425 2.4749999
3.7750001 1.425 2.425
3.7249999 1.475 2.425
3.7249999 1.525 2.425
3.7750001 1.525 2.425
3.625 1.425 2.5250001
3.675 1.425 2.5250001
3.625 1.475 2.5250001
3.675 1.475 2.575
3.7750001 1.425 2.5250001
3.7750001 1.475 2.5250001
3.625 1.525 2.5250001
3.675 1.525 2.575
3.7750001 1.525 2.5250001
3.875 1.425 2.425
3.875 1.475 2.425
3.9749999 1.425 2.425
3.9749999 1.475 2.425
3.875 1.525 2.425
3.925 1.525 2.425
3.875 1.425 2.5250001
3.825 1.425 2.575
3.875 1.475 2.575
3.9749999 1.425 2.5250001
3.9749999 1.475 2.5250001
3.9749999 1.425 2.575
3.925 1.475 2.575
3.9749999 1.475 2.575
3.925 1.525 2.575
3.9749999 1.525 2.575
4.125 0.82499999 2.425
4.125 0.875 2.425
4.125 0.92500001 2.425
4.125 0.97500002 2.425
4.0250001 0.82499999 2.5250001
4.0250001 0.875 2.5250001
4.125 0.82499999 2.5250001
4.1750002 0.82499999 2.5250001
4.125 0.875 2.5250001
4.1750002 0.875 2.5250001
4.0250001 0.92500001 2.5250001
4.0250001 0.97500002 2.5250001
4.125 0.92500001 2.5250001
4.125 0.97500002 2.5250001
4.2249999 0.82499999 2.425
4.2750001 0.82499999 2.425
4.2249999 0.875 2.425
4.2750001 0.875 2.425
4.2249999 0.92500001 2.425
4.2249999 0.97500002 2.425
4.2750001 0.82499999 2.5250001
4.2249999 0.875 2.5250001
4.2750001 0.875 2.5250001
4.3249998 0.82499999 2.5250001
4.3249998 0.875 2.5250001
4.2249999 0.92500001 2.5250001
4.2249999 0.97500002 2.5250001
4.2750001 0.97500002 2.5250001
4.3249998 0.92500001 2.5250001
4.3249998 0.97500002 2.5250001
4.1750002 1.025 2.425
4.1750002 1.075 2.425
4.1750002 1.125 2.425
4.1750002 1.175 2.425
4.0749998 1.025 2.5250001
4.0250001 1.075 2.5250001
4.125 1.025 2.5250001
4.125 1.075 2.5250001
4.0250001 1.125 2.5250001
4.0250001 1.175 2.5250001
4.125 1.125 2.5250001
4.125 1.175 2.5250001
4.2249999 1.025 2.425
4.2750001 1.025 2.425
4.2249999 1.075 2.425
4.2249999 1.125 2.425
4.3249998 1.175 2.425
4.2249999 1.025 2.5250001
4.2249999 1.075 2.5250001
4.2750001 1.075 2.5250001
4.3249998 1.025 2.5250001
4.3249998 1.075 2.5250001
4.2249999 1.125 2.5250001
4.2750001 1.125 2.5250001
4.2249999 1.175 2.5250001
4.2750001 1.175 2.5250001
4.3249998 1.125 2.5250001
4.3249998 1.175 2.5250001
4.5749998 0.82499999 2.425
4.5749998 0.875 2.425
4.4250002 0.82499999 2.5250001
4.4749999 0.82499999 2.5250001
4.4250002 0.875 2.5250001
4.4749999 0.875 2.5250001
4.5250001 0.82499999 2.5250001
4.5749998 0.82499999 2.5250001
4.5250001 0.875 2.5250001
4.5749998 0.875 2.5250001
4.4250002 0.92500001 2.5250001
4.4749999 0.92500001 2.5250001
4.4250002 0.97500002 2.5250001
4.4749999 0.97500002 2.5250001
4.5250001 0.92500001 2.5250001
4.5749998 0.92500001 2.5250001
4.5250001 0.97500002 2.5250001
4.5749998 0.97500002 2.5250001
4.6750002 0.92500001 2.425
4.6750002 0.97500002 2.425
4.7750001 0.82499999 2.5250001
4.7249999 0.875 2.5250001
4.7750001 0.875 2.5250001
4.6750002 0.97500002 2.5250001
4.7249999 0.92500001 2.5250001
4.7249999 0.97500002 2.5250001
4.7750001 0.97500002 2.5250001
4.4749999 1.125 2.425
4.5749998 1.175 2.425
4.4250002 1.025 2.5250001
4.4749999 1.025 2.5250001
4.4250002 1.075 2.5250001
4.4749999 1.075 2.5250001
4.5749998 1.025 2.5250001
4.5250001 1.075 2.5250001
4.5749998 1.075 2.5250001
4.4250002 1.125 2.5250001
4.4749999 1.125 2.5250001
4.4250002 1.175 2.5250001
4.4749999 1.175 2.5250001
4.5749998 1.125 2.5250001
4.5749998 1.175 2.5250001
4.6750002 1.025 2.5250001
4.7249999 1.025 2.5250001
4.7750001 1.025 2.5250001
4.7249999 1.075 2.5250001
4.7750001 1.075 2.5250001
4.6750002 1.125 2.5250001
4.6750002 1.175 2.5250001
4.7750001 1.125 2.5250001
4.7750001 1.175 2.5250001
4.1750002 1.225 2.425
4.1750002 1.275 2.425
4.1750002 1.325 2.425
4.1750002 1.375 2.425
4.0250001 1.225 2.5250001
4.0250001 1.275 2.5250001
4.125 1.225 2.5250001
4.125 1.275 2.5250001
4.0250001 1.325 2.5250001
4.0749998 1.375 2.5250001
4.125 1.325 2.5250001
4.125 1.375 2.5250001
4.2249999 1.225 2.425
4.3249998 1.225 2.425
4.2249999 1.225 2.5250001
4.2750001 1.225 2.5250001
4.2249999 1.275 2.5250001
4.2750001 1.275 2.5250001
4.3249998 1.225 2.5250001
4.3249998 1.225 2.575
4.3249998 1.275 2.575
4.2249999 1.325 2.5250001
4.2750001 1.325 2.5250001
4.2249999 1.375 2.5250001
4.2750001 1.375 2.5250001
4.3249998 1.325 2.5250001
4.3249998 1.375 2.5250001
4.0250001 1.425 2.425
4.0250001 1.475 2.425
4.1750002 1.425 2.425
4.1750002 1.475 2.425
4.0250001 1.525 2.425
4.0749998 1.425 2.5250001
4.0749998 1.475 2.5250001
4.125 1.425 2.5250001
4.125 1.475 2.5250001
4.125 1.425 2.575
4.2249999 1.425 2.425
4.2750001 1.475 2.425
4.3249998 1.475 2.425
4.2750001 1.525 2.425
4.2249999 1.425 2.5250001
4.2750001 1.425 2.5250001
4.2249999 1.475 2.5250001
4.2750001 1.475 2.5250001
4.3249998 1.425 2.5250001
4.3249998 1.475 2.5250001
4.3249998 1.425 2.575
4.4749999 1.275 2.425
4.5749998 1.225 2.425
4.5749998 1.275 2.425
4.4749999 1.375 2.425
4.5749998 1.325 2.425
4.5749998 1.375 2.425
4.4250002 1.225 2.5250001
4.4749999 1.225 2.5250001
4.4250002 1.275 2.5250001
4.4749999 1.275 2.5250001
4.5749998 1.225 2.5250001
4.5250001 1.275 2.5250001
4.5749998 1.275 2.5250001
4.4250002 1.325 2.5250001
4.4749999 1.325 2.5250001
4.4250002 1.375 2.5250001
4.5250001 1.325 2.5250001
4.5749998 1.325 2.5250001
4.5250001 1.375 2.5250001
4.5749998 1.375 2.5250001
4.6750002 1.325 2.425
4.6750002 1.375 2.425
4.6750002 1.225 2.5250001
4.7249999 1.275 2.5250001
4.6750002 1.325 2.5250001
4.7249999 1.375 2.5250001
4.7750001 1.375 2.5250001
4.4749999 1.425 2.425
4.4749999 1.475 2.425
4.5749998 1.425 2.425
4.5749998 1.475 2.425
4.4250002 1.525 2.425
4.5749998 1.525 2.425
4.4250002 1.425 2.5250001
4.4749999 1.425 2.5250001
4.4250002 1.475 2.5250001
4.4749999 1.475 2.5250001
4.5749998 1.425 2.5250001
4.5749998 1.475 2.5250001
4.7249999 1.425 2.5250001
4.7750001 1.425 2.5250001
4.7249999 1.475 2.5250001
4.7750001 1.475 2.5250001
5.0250001 0.025 1.625
5.0749998 0.025 1.625
5.0250001 0.075000003 1.625
5.0749998 0.075000003 1.625
5.0250001 0.025 1.675
5.0749998 0.025 1.675
5.0250001 0.075000003 1.675
5.0749998 0.075000003 1.675
5.0250001 0.125 1.625
5.0749998 0.125 1.625
5.0250001 0.175 1.625
5.0749998 0.175 1.625
5.0250001 0.125 1.675
5.0749998 0.125 1.675
5.0250001 0.175 1.675
5.0749998 0.175 1.675
5.0250001 0.025 1.725
5.0749998 0.025 1.725
5.0250001 0.075000003 1.725
5.0749998 0.075000003 1.725
5.0250001 0.025 1.775
5.0250001 0.075000003 1.775
5.0749998 0.075000003 1.775
5.0250001 0.125 1.725
5.0749998 0.125 1.725
5.0250001 0.175 1.725
5.0749998 0.175 1.725
5.0250001 0.125 1.775
5.0749998 0.125 1.775
5.0250001 0.175 1.775
5.0250001 0.22499999 1.625
5.0749998 0.22499999 1.625
5.0250001 0.27500001 1.625
5.0749998 0.27500001 1.625
5.0250001 0.22499999 1.675
5.0749998 0.22499999 1.675
5.0250001 0.27500001 1.675
5.0749998 0.27500001 1.675
5.0250001 0.32499999 1.625
5.0749998 0.32499999 1.625
5.0250001 0.375 1.625
5.0749998 0.375 1.625
5.0250001 0.32499999 1.675
5.0749998 0.32499999 1.675
5.0250001 0.375 1.675
5.0749998 0.375 1.675
5.0250001 0.22499999 1.725
5.0749998 0.22499999 1.725
5.0250001 0.27500001 1.725
5.0749998 0.27500001 1.725
5.0250001 0.22499999 1.775
5.0250001 0.27500001 1.775
5.0250001 0.32499999 1.725
5.0749998 0.32499999 1.725
5.0250001 0.375 1.725
5.0749998 0.375 1.725
5.0250001 0.32499999 1.775
5.0250001 0.375 1.775
5.0250001 0.025 1.825
5.0749998 0.025 1.825
5.0250001 0.075000003 1.825
5.0749998 0.075000003 1.825
5.0250001 0.025 1.875
5.0749998 0.025 1.875
5.0250001 0.075000003 1.875
5.0749998 0.075000003 1.875
5.0250001 0.125 1.825
5.0250001 0.175 1.825
5.0749998 0.175 1.825
5.0250001 0.125 1.875
5.0749998 0.125 1.875
5.0250001 0.175 1.875
5.0749998 0.175 1.875
5.0250001 0.025 1.925
5.0250001 0.075000003 1.925
5.0250001 0.025 1.975
5.0749998 0.025 1.975
5.0250001 0.075000003 1.975
5.0749998 0.075000003 1.975
5.125 0.075000003 1.975
5.0250001 0.125 1.925
5.0250001 0.175 1.925
5.0749998 0.175 1.975
5.125 0.125 1.975
5.0250001 0.22499999 1.825
5.0749998 0.22499999 1.825
5.0250001 0.27500001 1.825
5.0749998 0.27500001 1.825
5.0250001 0.22499999 1.875
5.0749998 0.22499999 1.875
5.0250001 0.27500001 1.875
5.0749998 0.27500001 1.875
5.0250001 0.32499999 1.825
5.0749998 0.32499999 1.825
5.0250001 0.375 1.825
5.0749998 0.375 1.825
5.0250001 0.32499999 1.875
5.0749998 0.32499999 1.875
5.0250001 0.375 1.875
5.0749998 0.375 1.875
5.0250001 0.22499999 1.925
5.0250001 0.27500001 1.925
5.0250001 0.22499999 1.975
5.0749998 0.22499999 1.975
5.0250001 0.27500001 1.975
5.0749998 0.27500001 1.975
5.0250001 0.32499999 1.925
5.0250001 0.375 1.925
5.0250001 0.32499999 1.975
5.0749998 0.32499999 1.975
5.0250001 0.375 1.975
5.0749998 0.375 1.975
5.0250001 0.42500001 1.625
5.0749998 0.42500001 1.625
5.0250001 0.47499999 1.625
5.0749998 0.47499999 1.625
5.0250001 0.42500001 1.675
5.0749998 0.42500001 1.675
5.0250001 0.47499999 1.675
5.0749998 0.47499999 1.675
5.0250001 0.52499998 1.625
5.0749998 0.52499998 1.625
5.0250001 0.57499999 1.625
5.0749998 0.57499999 1.625
5.0250001 0.52499998 1.675
5.0749998 0.52499998 1.675
5.0250001 0.57499999 1.675
5.0749998 0.57499999 1.675
5.0250001 0.42500001 1.725
5.0749998 0.42500001 1.725
5.0250001 0.47499999 1.725
5.0749998 0.47499999 1.725
5.0250001 0.42500001 1.775
5.0250001 0.47499999 1.775
5.0250001 0.52499998 1.725
5.0749998 0.52499998 1.725
5.0250001 0.57499999 1.725
5.0749998 0.57499999 1.725
5.0250001 0.52499998 1.775
5.0250001 0.57499999 1.775
5.0250001 0.625 1.625
5.0749998 0.625 1.625
