# .PCD v0.7 - Point Cloud Data file format
VERSION 0.7
FIELDS x y z
SIZE 4 4 4
TYPE F F F
COUNT 1 1 1
WIDTH 390
HEIGHT 1
VIEWPOINT 0 0 0 1 0 0 0
POINTS 390
DATA ascii
0.67446423 -14.67501 0.42005384
0.67444324 -14.57501 0.41986001
0.62502289 -14.575 0.42521316
0.57560277 -14.574989 0.43056625
0.62504387 -14.674999 0.42540693
4.2744808 -9.6250095 0.020204186
4.2744703 -9.5750093 0.020107299
4.2744598 -9.5250092 0.020010397
4.2744493 -9.4750099 0.019913509
4.2744389 -9.4250107 0.019816607
4.2744179 -9.3250103 0.019622833
4.2744074 -9.2750101 0.019525945
4.2743969 -9.2250109 0.019429043
4.2743859 -9.1750116 0.0193322
4.2743754 -9.1250114 0.019235313
4.2743649 -9.0750113 0.019138411
4.2743545 -9.0250111 0.019041523
4.274344 -8.9750118 0.018944636
4.2743335 -8.9250126 0.018847734
4.274323 -8.8750124 0.018750846
4.2743125 -8.8250122 0.018653944
4.274302 -8.775012 0.018557072
4.2742915 -8.7250128 0.018460169
4.2742705 -8.6250134 0.01826638
4.27426 -8.5750132 0.018169492
4.2742496 -8.525013 0.01807259
4.2742391 -8.4750137 0.017975703
4.2742286 -8.4250145 0.017878801
4.2742181 -8.3750143 0.017781913
4.2247977 -8.3750038 0.023135036
4.1753778 -8.3749933 0.0284881
4.1259575 -8.3749828 0.033841223
4.125968 -8.424983 0.033938117
4.1259785 -8.4749823 0.034035005
4.125989 -8.5249815 0.034131907
4.1259995 -8.5749817 0.034228802
4.1260309 -8.7249813 0.034519479
4.1260414 -8.7749805 0.034616366
4.1260519 -8.8249807 0.034713261
4.1260624 -8.8749809 0.034810156
4.1260729 -8.9249811 0.03490705
4.1755142 -9.0249901 0.02974771
4.1755247 -9.0749903 0.029844612
4.1755357 -9.1249905 0.029941455
4.1755462 -9.1749907 0.030038342
4.1755567 -9.2249899 0.030135229
4.1755672 -9.2749891 0.030232117
4.1755776 -9.3249893 0.030329019
4.1755986 -9.4249897 0.030522808
4.1756091 -9.4749889 0.030619711
4.1756196 -9.5249882 0.030716591
4.1756301 -9.5749884 0.030813485
4.1756406 -9.6249886 0.03091038
4.1756511 -9.6749887 0.031007275
4.225071 -9.6749992 0.025654212
4.2744913 -9.6750097 0.020301089
3.0759377 -1.2749829 0.13365763
3.0759482 -1.3249831 0.13375452
3.1253788 -1.3749933 0.12849832
3.174799 -1.3750038 0.12314522
3.2242086 -1.3250146 0.11769523
3.1747675 -1.2250042 0.12285454
3.1253474 -1.2249937 0.12820764
3.0759273 -1.2249832 0.13356073
1.3257538 -5.7249861 0.33195966
1.3257433 -5.6749868 0.33186281
1.3257328 -5.6249866 0.33176589
1.3257223 -5.5749869 0.331669
1.3257118 -5.5249872 0.33157212
1.3257014 -5.474987 0.3314752
1.3256909 -5.4249878 0.33137834
1.3256804 -5.3749876 0.33128142
1.3256699 -5.3249879 0.33118454
1.3256593 -5.2749882 0.33108765
1.3256488 -5.224988 0.33099076
1.3256383 -5.1749887 0.33089387
1.3750374 -5.0749993 0.32534701
1.3750479 -5.124999 0.32544386
1.3750584 -5.1749992 0.32554078
1.3750689 -5.2249985 0.32563767
1.3750794 -5.2749987 0.32573456
1.3750899 -5.3249984 0.32583144
1.3751005 -5.3749981 0.32592833
1.375111 -5.4249983 0.32602525
1.3751215 -5.4749975 0.32612211
1.375132 -5.5249977 0.32621902
1.3751425 -5.5749974 0.32631591
1.3751529 -5.6249971 0.3264128
2.024385 -12.375011 0.26932296
2.0243955 -12.425011 0.26941985
2.024406 -12.475011 0.26951674
1.9255446 -12.37499 0.28002918
1.9749649 -12.375001 0.27467605
0.47394967 -1.1750188 0.41530526
0.37510943 -1.1749978 0.42601144
0.37509894 -1.1249981 0.42591453
0.42451906 -1.1250086 0.42056143
0.47393918 -1.1250191 0.41520834
3.0259929 1.2250175 0.13416609
3.1248224 1.2749968 0.12336301
3.1742532 1.2249861 0.1181068
3.1742635 1.1749868 0.1182037
3.1248436 1.1749973 0.12355679
3.0754235 1.1750078 0.12890989
3.0260034 1.1750183 0.13426298
3.6243982 1.1749887 0.069445744
3.6244087 1.1249895 0.069542639
3.5749888 1.125 0.074895732
3.5255685 1.1250105 0.080248825
3.525558 1.1750097 0.080151938
3.5255475 1.2250099 0.080055043
3.6243877 1.2249889 0.069348849
3.1758695 -6.4749842 0.13302827
3.2252686 -6.3749952 0.12748139
3.2252581 -6.324995 0.12738448
3.175859 -6.4249845 0.13293138
2.9739273 -11.675019 0.16509752
2.9245176 -11.725009 0.17054752
2.9245281 -11.775008 0.1706444
1.1241158 -12.375016 0.36683884
1.1241053 -12.325016 0.36674196
1.0746852 -12.325006 0.37209505
1.025265 -12.324995 0.37744814
0.97584486 -12.324985 0.38280123
0.97585535 -12.374985 0.38289815
1.0252756 -12.374995 0.37754506
3.4247439 -14.925005 0.1226376
3.3753238 -14.924994 0.12799069
3.3258934 -14.874984 0.1332469
3.3258722 -14.774983 0.13305311
3.4247334 -14.875005 0.1225407
3.4741535 -14.875015 0.11718761
3.474164 -14.925015 0.11728451
4.1253805 -5.6249933 0.028512105
4.12537 -5.5749931 0.028415203
4.125349 -5.4749937 0.028221428
4.0759182 -5.4249835 0.033477657
4.0758972 -5.3249836 0.033283867
4.0758867 -5.2749839 0.033186972
4.0758762 -5.2249842 0.033090085
4.0758657 -5.1749845 0.03299319
4.0758553 -5.1249847 0.032896303
4.0758448 -5.0749846 0.032799408
4.0758343 -5.0249848 0.032702506
4.0758238 -4.9749851 0.032605618
4.0758133 -4.9249854 0.032508723
4.0758028 -4.8749857 0.032411829
4.0757923 -4.8249855 0.032314941
4.0757818 -4.7749858 0.032218039
4.0757713 -4.7249861 0.032121152
4.0757608 -4.6749864 0.032024257
4.0757504 -4.6249866 0.031927362
4.0757399 -4.5749865 0.031830467
4.0757294 -4.5249867 0.03173358
4.0757189 -4.474987 0.031636685
4.0757084 -4.4249873 0.031539798
4.0756979 -4.3749876 0.031442896
4.0756874 -4.3249874 0.031346001
4.0756769 -4.2749877 0.031249113
4.0756454 -4.1249886 0.030958429
4.075635 -4.0749884 0.030861542
4.0756245 -4.0249887 0.030764647
4.1744542 -3.9750097 0.019961566
4.1744647 -4.0250096 0.020058453
4.1744752 -4.0750093 0.02015534
4.1744857 -4.1250095 0.020252243
4.1744967 -4.1750093 0.020349085
4.2239375 -4.2750192 0.015189812
4.223948 -4.3250189 0.015286699
4.2239585 -4.3750191 0.015383586
4.223969 -4.4250188 0.015480474
4.2239795 -4.4750185 0.015577376
4.22399 -4.5250182 0.015674263
4.2240005 -4.5750179 0.015771151
4.2240109 -4.6250181 0.015868053
4.2240214 -4.6750178 0.015964955
4.2240319 -4.7250175 0.016061842
4.2240424 -4.7750173 0.01615873
4.2240529 -4.825017 0.016255632
4.2240634 -4.8750172 0.016352519
4.2240739 -4.9250169 0.016449407
4.2240844 -4.9750166 0.016546309
4.2240949 -5.0250163 0.016643196
4.2241054 -5.075016 0.016740084
4.2241158 -5.1250162 0.016836986
4.2241263 -5.1750159 0.016933888
4.2241368 -5.2250156 0.017030776
4.2241473 -5.2750154 0.017127663
4.2241578 -5.3250151 0.01722455
4.2241788 -5.425015 0.01741834
4.2241893 -5.4750147 0.017515227
4.2242098 -5.5750141 0.017709032
4.2242203 -5.6250143 0.017805919
4.1748009 -5.6250038 0.023158982
3.2743845 -4.9250112 0.11931837
3.2249854 -5.0250006 0.12486527
3.274395 -4.9750109 0.11941525
1.7749332 -1.1750011 0.27438453
1.7255131 -1.1749907 0.27973762
1.7255236 -1.2249904 0.27983451
1.8243744 -1.2750115 0.26922521
1.8243639 -1.2250118 0.26912832
1.8243535 -1.1750116 0.26903141
2.7740636 -1.2750168 0.16635624
2.7740531 -1.2250171 0.16625935
2.7246327 -1.2250066 0.17161247
2.6752129 -1.2249961 0.17696556
2.6257925 -1.2249856 0.18231866
2.625803 -1.2749853 0.18241556
2.7246537 -1.3250065 0.17180626
2.7740743 -1.325017 0.16645314
4.0749211 -0.67500162 0.024272859
4.0255013 -0.67499113 0.029625937
3.9760599 -0.57498074 0.034785263
3.9760494 -0.52498102 0.034688368
3.9760389 -0.47498131 0.034591481
3.9760284 -0.42498159 0.034494586
3.976018 -0.3749814 0.034397691
4.0254383 -0.37499189 0.029044569
4.0748582 -0.37500238 0.023691505
4.1242785 -0.37501287 0.018338382
4.124289 -0.42501307 0.01843527
4.1242995 -0.47501278 0.018532172
4.12431 -0.52501249 0.018629059
4.1243205 -0.57501221 0.018725961
2.9745674 -14.725008 0.17100798
3.0239773 -14.675018 0.16555797
2.9745567 -14.675008 0.17091109
2.9251368 -14.674997 0.17626418
2.8757167 -14.674987 0.18161727
2.8757272 -14.724987 0.18171418
2.9251473 -14.724998 0.17636107
1.0257478 -14.624987 0.3819052
1.0257373 -14.574986 0.38180831
1.1245775 -14.575007 0.37110212
1.1739978 -14.575018 0.365749
1.1740083 -14.625018 0.36584592
1.1245881 -14.625008 0.37119901
1.0751681 -14.624997 0.3765521
1.4753996 -12.324991 0.32869023
1.4259794 -12.324982 0.33404332
1.42599 -12.374982 0.33414018
1.4754102 -12.374992 0.32878709
1.5248302 -12.375003 0.323434
1.5742505 -12.375013 0.3180809
1.57424 -12.325013 0.31798398
1.5248197 -12.325003 0.32333714
-0.77530456 -12.175006 0.57218921
-0.82472467 -12.174995 0.5775423
-0.87414479 -12.174985 0.5828954
-0.82471418 -12.224996 0.57763916
-0.77529407 -12.225006 0.57228607
-0.72587395 -12.225017 0.56693298
-0.72588444 -12.175016 0.56683612
-0.67598152 -14.475019 0.56594002
-0.72540164 -14.475008 0.57129318
-0.77482176 -14.474998 0.57664627
-0.67597103 -14.525017 0.56603694
0.12500644 -12.375 0.47506094
0.17440557 -12.27501 0.46951401
0.12498546 -12.275 0.47486711
0.075565338 -12.274989 0.4802202
4.2259946 -14.074982 0.034180753
4.2260151 -14.174982 0.034374543
4.226047 -14.324981 0.034665212
4.2754779 -14.374991 0.029408991
4.3248978 -14.375002 0.024055913
4.3743181 -14.375012 0.01870279
4.3742867 -14.225014 0.018412128
4.3742757 -14.175014 0.018315271
4.3742547 -14.075013 0.018121496
4.3742337 -13.975015 0.017927706
4.3742232 -13.925014 0.017830804
4.3742127 -13.875014 0.017733917
4.3742023 -13.825014 0.017637014
4.3741813 -13.725016 0.01744324
4.3741708 -13.675015 0.017346352
4.3741603 -13.625015 0.01724945
4.3741498 -13.575015 0.017152563
4.3741288 -13.475017 0.016958773
4.3741183 -13.425016 0.016861871
4.3741078 -13.375016 0.016764984
4.3740973 -13.325016 0.016668081
4.3740869 -13.275016 0.016571194
4.3740764 -13.225018 0.016474307
4.3740659 -13.175017 0.016377419
4.3740554 -13.125017 0.016280517
4.3740449 -13.075017 0.01618363
4.3740239 -12.975019 0.01598984
4.3740134 -12.925018 0.015892953
4.3740029 -12.875018 0.01579605
4.3245826 -12.875008 0.021149173
4.2257318 -12.824986 0.031758472
4.2257423 -12.874987 0.031855367
4.2257528 -12.924987 0.031952262
4.2257633 -12.974987 0.032049157
4.2257738 -13.024985 0.032146052
4.2257843 -13.074986 0.032242931
4.2257948 -13.124986 0.032339826
4.2258053 -13.174986 0.032436721
4.2258158 -13.224986 0.032533616
4.2258368 -13.324985 0.032727398
4.2258472 -13.374985 0.032824293
4.2258682 -13.474985 0.03301809
4.2258787 -13.524983 0.033114977
4.2258997 -13.624984 0.033308759
4.2259207 -13.724984 0.033502541
4.2259417 -13.824983 0.033696331
4.2259626 -13.924983 0.033890121
4.2259836 -14.024981 0.03408391
0.72588944 1.2750158 0.38321197
0.72587895 1.325016 0.38311505
0.82472968 1.2749949 0.37250578
0.77530956 1.2750053 0.37785888
1.7250093 1.2250004 0.27508676
1.7744294 1.2249899 0.26973367
1.6755786 1.2750101 0.280343
1.6755891 1.2250109 0.28043988
2.6746986 1.2249947 0.17221783
2.7241187 1.2249842 0.16686474
2.7241292 1.174984 0.16696163
2.6747088 1.1749945 0.17231472
2.625289 1.175005 0.17766781
2.5758686 1.1750154 0.18302092
2.5758584 1.2250156 0.18292402
2.6252785 1.2250051 0.17757092
3.1258512 -3.6249845 0.13285848
3.1258616 -3.6749845 0.13295537
3.2741327 -3.7250156 0.11699295
3.2741222 -3.6750159 0.11689606
3.2741117 -3.625016 0.11679917
3.2741013 -3.5750165 0.11670227
3.2246809 -3.575006 0.1220554
3.1752608 -3.5749955 0.12740849
3.1258407 -3.574985 0.13276158
2.9246645 -12.425006 0.17190401
2.8752444 -12.424995 0.17725711
2.9246435 -12.325006 0.17171022
2.924654 -12.375007 0.17180713
-1.1755466 -14.42501 0.61995417
-1.1755362 -14.47501 0.62005109
-1.2249565 -14.474999 0.62540418
-1.2743764 -14.474989 0.63075727
-1.2743869 -14.424989 0.63066036
-1.224967 -14.424999 0.62530732
3.274353 -4.775012 0.11902769
3.2743425 -4.7250118 0.11893079
3.274332 -4.6750121 0.1188339
3.2743216 -4.6250124 0.118737
3.2249224 -4.7250013 0.12428391
3.2743635 -4.8250113 0.11912458
3.2251742 -5.9249969 0.12660934
3.2251637 -5.8749971 0.12651245
3.1757436 -5.8749866 0.13186555
3.2251847 -5.9749966 0.12670624
2.3743148 -5.8750124 0.2186752
2.3248844 -5.8250017 0.2239314
2.3743043 -5.8250122 0.21857832
3.2742691 -4.3750134 0.11825256
3.2742796 -4.4250131 0.11834943
3.2742901 -4.4750128 0.11844632
3.2743006 -4.525013 0.11854322
3.2248595 -4.4250026 0.12370256
3.224849 -4.3750029 0.12360566
3.2742481 -4.2750139 0.11805878
3.2742586 -4.3250132 0.11815567
-1.6751432 -14.225003 0.67367762
-1.6257234 -14.225014 0.66832459
-1.6257129 -14.275013 0.66842151
-1.6257024 -14.325012 0.66851836
-1.6256809 -14.425013 0.66871214
-1.6751013 -14.425002 0.67406523
-1.6751118 -14.375002 0.67396832
-1.6751223 -14.325002 0.67387146
-1.6751328 -14.275002 0.67377454
2.2245638 1.2249918 0.22097576
2.2739844 1.2249813 0.21562263
2.2739949 1.1749821 0.21571952
2.1751437 1.2250023 0.22632885
2.3239293 -1.2750196 0.21511418
2.2250886 -1.2749987 0.22582039
2.1756687 -1.2749877 0.23117349
2.1756582 -1.224988 0.2310766
2.1756477 -1.1749883 0.2309797
2.2250676 -1.1749988 0.2256266
2.2744985 -1.225009 0.22037038
2.8244495 -5.87501 0.16991726
2.7255983 -5.8249888 0.18052658
2.7256088 -5.874989 0.18062347
2.7750292 -5.8749995 0.17527036
