# .PCD v0.7 - Point Cloud Data file format
VERSION 0.7
FIELDS x y z
SIZE 4 4 4
TYPE F F F
COUNT 1 1 1
WIDTH 699
HEIGHT 1
VIEWPOINT 0 0 0 1 0 0 0
POINTS 699
DATA ascii
3.675 1.3 -0.19999999
3.825 1.275 -0.175
1.875 -1.525 -0.025
1.425 -1.375 -0.025
1.525 -1.4 -0.025
1.735 -1.395 -0.025
1.3083334 -1.2416667 -0.025000002
1.4107144 -1.2678572 -0.025000002
1.5607142 -1.2821429 -0.025000002
1.7150002 -1.2950001 -0.025
1.175 -1.1 -0.025
1.275 -1.1250001 -0.025000002
1.41875 -1.13125 -0.025000002
1.5649999 -1.155 -0.025
1.675 -1.175 -0.025
1.125 -0.97499996 -0.025000002
1.26875 -0.98125005 -0.025000002
1.4 -1.025 -0.025
0.97500002 -0.875 -0.025
1.1 -0.83749998 -0.025
0.54999995 0.27500001 -0.025
0.625 0.27500001 -0.025
0.53214282 0.37500003 -0.025000002
0.65833336 0.38333338 -0.025000002
0.77499998 0.42500001 -0.025
0.53749996 0.48749998 -0.025
0.67500001 0.52499992 -0.025000002
0.77499998 0.52500004 -0.025000002
2.1535716 -2.0035715 0.096428581
2.7749999 -1.9875001 0.087500006
2.875 -1.975 0.125
2.1916666 -1.8916668 0.10000001
2.3000002 -1.8916668 0.075000003
2.8000002 -1.9000001 0.075000003
2.915 -1.9050001 0.085000001
1.425 -1.275 0.025
1.625 -1.25 0.025
0.97500002 -0.92500001 0.025
1.075 -0.92500001 0.025
0.85000002 -0.79999995 0.025
0.97499996 -0.82500005 0.025
1.0916667 -0.79166669 0.025000002
0.68500006 -0.64499998 0.025
0.83124995 -0.66874999 0.025000002
0.92500007 -0.67500007 0.025000002
1.075 -0.72500002 0.025
0.55500001 -0.51499999 0.025
0.67500001 -0.52499992 0.025000002
0.79166669 -0.55833334 0.025000002
0.42500004 -0.375 0.025000002
0.52499992 -0.375 0.025000002
0.64999998 -0.42500001 0.025
0.39999998 -0.21666667 0.066666678
0.47499999 -0.27500001 0.025
0.375 -0.075000003 0.10000001
0.39166668 0.086111106 0.097222224
0.42500001 0.21250001 0.037500001
0.51388884 0.22499998 0.030555559
0.64166665 0.27500004 0.041666668
0.50833333 0.375 0.025000002
0.67500001 0.36875001 0.025000002
0.80166656 0.37166667 0.075000003
0.6892857 0.57500005 0.067857146
0.81166661 0.53499997 0.064999998
0.69999999 0.625 0.075000003
0.815 0.625 0.055000003
4.7750001 0.97500002 0.025
4.7249999 1.075 0.025
2.1500001 -2 0.22500001
2.1949999 -1.8949999 0.23
2.3204546 -1.875 0.23409089
2.375 -1.7249999 0.25
2.375 -1.5750002 0.25
1.5950001 -0.77500004 0.21500002
2.625 -0.77499998 0.27500001
2.625 -0.67500007 0.27500004
2.625 -0.57499999 0.27500001
0.38749999 -0.175 0.2375
0.52500004 -0.175 0.27500004
0.64999998 -0.2 0.27500001
0.38611111 -0.069444448 0.22499998
0.48749998 -0.050000004 0.25
0.69499999 -0.065000005 0.27500001
0.38999999 0.075000003 0.21499999
0.49166664 0.041666668 0.25833333
0.70000005 0.050000004 0.27500001
1.3 0.125 0.22499999
1.3 0.22499999 0.22499999
1.375 0.175 0.22499999
2.075 0.27500001 0.19999999
2.16875 0.26249999 0.21875
2.3416667 0.24166667 0.22499999
2.5250001 0.27500001 0.22499999
0.81833327 0.37166673 0.21833333
0.98750007 0.34999999 0.22500001
1.1204545 0.35227275 0.22954544
1.2892859 0.35357144 0.23928574
1.4305557 0.35833335 0.24722224
1.525 0.36250001 0.26249999
2.075 0.375 0.21666667
2.1666667 0.375 0.24166666
0.69999999 0.57500005 0.22499999
0.80714279 0.53214282 0.23214287
2.125 0.47499999 0.175
0.71249998 0.625 0.23749998
0.77499998 0.625 0.22500001
2.3499999 -2.1583333 0.34166667
2.3583331 -2.0250001 0.34166667
2.3625002 -1.875 0.37083334
2.375 -1.725 0.37500003
2.375 -1.5749999 0.37500003
2.375 -1.475 0.42500001
1.575 -0.77499998 0.32499999
2.625 -0.77499998 0.375
2.625 -0.67500001 0.375
2.625 -0.57499999 0.32499999
1.575 -0.32499999 0.375
0.19166666 -0.20833334 0.42500004
1.4750001 -0.22499999 0.32499999
1.5305554 -0.21944444 0.375
1.4750001 -0.075000003 0.32499999
1.5340908 -0.065909088 0.37954548
1.475 0.025 0.32499999
1.5535715 0.046428576 0.36071432
2.125 0.27500001 0.42500001
2.2750001 0.27500001 0.32499999
0.82999992 0.37 0.37
0.96999997 0.35500002 0.38499996
1.1083333 0.37833336 0.375
1.2916667 0.35000002 0.39166665
1.4083333 0.36666667 0.36666667
1.5431818 0.36136365 0.3568182
2.075 0.42500001 0.375
2.175 0.39374998 0.39374998
2.3027775 0.36388889 0.39166668
3.125 0.42500001 0.42500001
0.71249998 0.57499999 0.375
0.80735284 0.53382349 0.37499997
0.70000005 0.625 0.375
0.79999995 0.625 0.375
2.325 -2.2750001 0.57499999
2.3499999 -2.1624999 0.57499999
2.3678575 -1.8464285 0.51785707
2.375 -1.725 0.52499998
2.375 -1.575 0.52499998
2.375 -1.4750001 0.52499998
2.0625 -0.97500002 0.52499998
2.15625 -0.95625001 0.52499998
2.575 -0.95000005 0.57499999
1.6 -0.77499998 0.57499999
2.075 -0.81785721 0.51071429
2.1650002 -0.77500004 0.505
2.3083334 -0.80833334 0.52499998
2.625 -0.80500001 0.54500002
2.625 -0.67500001 0.52499998
1.4375001 -0.35624999 0.52500004
1.575 -0.34166667 0.47499999
0.175 -0.175 0.47499999
1.4500002 -0.24999999 0.54999995
1.5607144 -0.18928573 0.52499998
1.5704544 -0.079545453 0.52045453
1.4625 0.075000003 0.57499999
1.525 0.085000001 0.55500001
1.525 0.175 0.57499999
0.82187492 0.37499997 0.5218749
0.97500008 0.36250004 0.52083331
1.115 0.35500002 0.51999998
1.2750001 0.3416667 0.49999997
1.3916668 0.34166667 0.49166667
1.5392858 0.35357147 0.53928578
2.7625 0.42500001 0.54999995
2.9749999 0.42500001 0.57499999
3.0583334 0.40833336 0.55000001
0.70499998 0.57499999 0.52500004
0.80147052 0.52794117 0.52794111
2.6416669 0.54166663 0.55000007
2.7750001 0.49375004 0.54374999
2.875 0.5 0.52499998
0.67500001 0.625 0.52499998
0.80000007 0.625 0.52499998
4.375 1.125 0.52499998
2.325 -2.2750001 0.625
2.3625 -2.1875 0.625
2.375 -1.7 0.625
1.775 -1.575 0.72500002
1.825 -1.55 0.72500002
2.375 -1.575 0.625
1.775 -1.375 0.72500002
1.85 -1.45 0.72500002
2.375 -1.475 0.625
1.775 -1.2916667 0.70833337
1.8250002 -1.2416667 0.69166672
1.825 -1.15 0.67500001
1.5437499 -0.98125005 0.6875
2.0500002 -0.97500002 0.625
2.1750002 -0.97500008 0.625
2.3375001 -0.98749995 0.625
2.5916667 -0.94166672 0.625
1.5821429 -0.81071436 0.66071433
1.775 -0.82499999 0.67500007
1.8892858 -0.82499999 0.68928581
1.975 -0.79999995 0.67500001
2.625 -0.82499999 0.625
1.5650001 -0.67500001 0.685
1.7250001 -0.65833336 0.68333334
1.8850001 -0.67500001 0.70499998
1.9875 -0.66250002 0.67500001
2.5999999 -0.70000005 0.625
1.7249999 -0.57499999 0.70833337
1.8583333 -0.55833334 0.69166672
2 -0.57499999 0.67500001
1.4500002 -0.34999999 0.67499995
1.453125 -0.22812499 0.67187512
1.55 -0.19999999 0.64999998
1.4500002 -0.082142867 0.67500001
1.5875001 -0.0625 0.625
1.4550002 0.06499999 0.67500001
1.5392858 0.11071429 0.66071433
1.575 0.175 0.625
2.125 0.24166667 0.70833337
0.82857138 0.37142858 0.67142862
0.97999996 0.36000001 0.67000002
1.1049999 0.35499999 0.67500001
1.5312499 0.36250001 0.68125004
2.125 0.32499999 0.72500002
2.7812502 0.42499998 0.66874999
2.9749999 0.42500001 0.67500001
3.0700002 0.40499997 0.66500002
0.71250004 0.57499999 0.67500001
0.79999977 0.52499998 0.67500001
2.635 0.54500002 0.66500002
2.7527778 0.49722221 0.67500001
0.54166663 0.625 0.69166672
0.67500001 0.625 0.67500001
0.79999995 0.625 0.67500007
2.2750001 -1.575 0.82499999
1.45 -1.425 0.77499998
1.7125001 -0.96666664 0.81666672
1.7375001 -0.84374994 0.82500005
2.4749999 -0.70000005 0.875
1.4583335 -0.34722224 0.81388891
1.525 -0.375 0.85000002
1.4750001 -0.22499998 0.82499993
1.4750001 -0.074999996 0.82500005
1.4596155 0.067307696 0.81730765
1.525 0.105 0.83500004
2.5250001 0.27500001 0.82499999
2.575 0.27500001 0.875
0.83409089 0.3659091 0.82499999
0.98055553 0.35833335 0.79166675
1.1068182 0.35227275 0.81136358
1.2750001 0.33749998 0.77499998
1.4449999 0.345 0.80499995
1.525 0.35833335 0.81666672
2.5083332 0.35000002 0.84166664
2.625 0.39166665 0.8416667
2.7583332 0.42500004 0.82499999
3.0250001 0.42500001 0.77499998
0.71249998 0.57499999 0.8125
0.80961525 0.53653842 0.82115388
2.675 0.47499999 0.82499999
2.7750003 0.49499997 0.81999999
0.54166669 0.625 0.80833334
0.67500001 0.625 0.82500005
0.78749996 0.625 0.82499999
4.5250001 -2.2750001 0.92500001
4.4749999 -2.2249999 0.97500002
4.5500002 -2.1500001 0.97500002
2.4916668 -1.1416667 1.0083334
1.7159091 -0.97045469 0.98409092
1.7194445 -0.84722215 0.98055553
2.325 -0.67500001 0.92500001
1.475 -0.345 0.96499997
1.525 -0.34999999 1
1.4750001 -0.22499998 0.97500008
1.525 -0.27500001 1.025
1.4750001 -0.075000003 0.97500008
1.525 -0.050000001 1.025
1.475 0.037500001 0.96249998
1.525 0.0625 0.98750001
1.75 0.125 0.95000005
0.82499999 0.37045455 0.97954559
0.995 0.375 0.96500009
1.115 0.35500002 0.97999996
1.4750001 0.39166665 0.95833337
1.5403845 0.36730766 0.98269236
2.6083333 0.35833335 0.92500007
2.7749999 0.42500001 0.97500002
2.925 0.42500001 1.025
0.72500008 0.57499999 0.97500002
0.81730765 0.54038459 0.97884619
2.6583333 0.54166663 1.0083334
2.7613637 0.50681818 0.96590912
3.075 0.47499999 1.025
0.68500006 0.625 0.94499999
0.77499998 0.625 0.92500001
2.4749999 -1.175 1.075
2.575 -1.175 1.125
2.3000002 -0.97500002 1.175
1.525 -0.32499999 1.075
1.475 -0.19999999 1.075
1.525 -0.22500001 1.1
1.475 -0.1 1.075
1.525 -0.085000001 1.0950001
1.525 0.025 1.075
0.95000005 0.27500001 1.175
0.84642857 0.34642857 1.1035714
0.98214298 0.36071432 1.1750001
1.121875 0.36562496 1.13125
1.2625 0.32499999 1.1624999
1.432143 0.36071429 1.1678572
1.5516667 0.375 1.1316668
2.9375 0.42500001 1.0875001
0.82499999 0.55000001 1.0916667
2.665 0.565 1.1450001
2.7865391 0.54038459 1.121154
2.9050002 0.49499997 1.1450001
3.625 0.47499999 1.175
4.4749999 -3.125 1.325
2.2750001 0.125 1.275
0.97500002 0.27500001 1.225
1.175 0.375 1.325
1.225 0.35000002 1.3000001
2.6500001 0.57499999 1.2750001
2.7750001 0.55625004 1.2562501
2.9194443 0.53055555 1.2750001
3.075 0.49499997 1.2950001
3.2249999 0.5 1.325
3.375 0.52499998 1.325
3.5250001 0.52499998 1.275
3.625 0.47499999 1.325
5.375 1.025 1.275
5.4416671 1.025 1.2583334
5.3499999 1.125 1.3
5.4333334 1.1000001 1.275
4.4749999 -3.075 1.375
1.2535714 0.3464286 1.4035715
1.45 0.375 1.375
2.6583333 0.52499998 1.4083333
2.7678573 0.54642856 1.4321429
2.9083333 0.5333333 1.4083335
3.075 0.52500004 1.4450001
3.2349999 0.49499997 1.4050001
3.3416669 0.5 1.4250001
3.5083332 0.47499999 1.4583334
5.4250002 1.025 1.4
1.275 0.375 1.525
2.675 0.52499998 1.625
2.7750001 0.54999995 1.525
2.9375 0.52499998 1.5375
3.0750003 0.52499998 1.575
3.2249997 0.47499999 1.585
3.3583333 0.47499999 1.575
3.575 0.47499999 1.525
4.4749999 -2.075 1.675
5.0749998 -1.975 1.775
5.0749998 -1.925 1.775
2.675 0.52499998 1.775
3.125 0.5 1.725
3.2464285 0.49642858 1.7392859
3.375 0.47499999 1.75
3.5 0.47499999 1.7249999
2.3499999 0.57499999 1.9
2.4749999 0.57499999 1.9124999
2.645 0.55500001 1.875
2.7678571 0.54642856 1.8892857
2.925 0.52499998 1.925
3.375 0.47499999 1.825
3.4749999 0.47499999 1.85
2.3499999 0.57499999 2.0250001
2.47 0.55500001 2.0250003
2.6375 0.55000001 2.0125
2.7833335 0.54166669 2.0000002
2.8950002 0.52500004 2.0150001
3.075 0.5 2
4.7083335 0.375 2.175
2.175 0.57499999 2.1500001
2.375 0.54999995 2.2249999
2.7874999 0.52499998 2.1375
2.9083335 0.52499998 2.1750002
3.0250001 0.52499998 2.2249999
4.7750006 0.32499999 2.3250003
2.0500002 0.57499999 2.3000002
2.1500001 0.57499999 2.3499999
2.345 0.55500001 2.3050001
3.0250001 0.52499998 2.3000002
2.7249999 -3.325 2.5250001
2.5250001 -3.0250001 2.4749999
2.4916668 -2.9083335 2.5250001
2.2750001 -2.575 2.5250001
2.2750001 -1.275 2.5250001
2.5250001 -0.92500001 2.5250001
2.4749999 -0.85000002 2.5250001
4.0749998 -0.175 2.5250001
4.7583332 0.27500004 2.4916668
4.7750001 0.375 2.4750001
2.2249999 0.57499999 2.4499998
2.3416667 0.56666672 2.4833336
2.4650002 0.54500002 2.4849999
3.075 -3.825 2.575
2.925 -3.625 2.5999999
2.9583335 -3.5083332 2.6083333
3.0999999 -3.5250001 2.5999999
2.7249999 -3.325 2.575
2.9416666 -3.375 2.5833333
3.0687501 -3.3687499 2.575
3.175 -3.325 2.625
2.675 -3.175 2.575
2.7892859 -3.2178571 2.575
2.9312499 -3.23125 2.5812502
3.05 -3.2250001 2.575
3.2750001 -3.175 2.575
3.4000001 -3.1999998 2.575
2.6550002 -3.0650001 2.575
2.7750001 -3.075 2.575
2.9083335 -3.0750003 2.5833333
3.0550001 -3.0550001 2.575
3.2250001 -3.0749998 2.575
3.3375001 -3.0625 2.575
3.4749999 -3.075 2.5999999
3.7249999 -3.0250001 2.575
2.5250001 -2.9000001 2.575
2.6312501 -2.9187498 2.575
2.77 -2.9199998 2.5800004
2.9178574 -2.9178572 2.5892859
3.075 -2.9187498 2.575
3.2249999 -2.932143 2.5892859
3.3607144 -2.9250002 2.575
3.5250001 -2.9000001 2.575
3.7 -2.9375 2.575
3.7750001 -2.9749999 2.575
2.3499999 -2.7249999 2.575
2.4749997 -2.7750001 2.575
2.625 -2.7750003 2.575
2.7750001 -2.7750003 2.575
2.925 -2.7812502 2.5812502
3.075 -2.7750001 2.575
3.2249999 -2.7750001 2.5999999
3.3500001 -2.7750003 2.575
3.5250001 -2.7666664 2.6083333
3.625 -2.825 2.625
2.3416667 -2.6083333 2.575
2.4749999 -2.6249998 2.575
2.6187501 -2.6312501 2.575
2.7700002 -2.6200001 2.5800002
2.9124999 -2.6187499 2.59375
3.0805557 -2.6305554 2.5861113
3.2321427 -2.632143 2.6178575
3.3666668 -2.6333334 2.575
3.5250001 -2.6500001 2.6000001
3.6500001 -2.6500001 2.5999999
2.325 -2.4749997 2.575
2.4749999 -2.4749999 2.575
2.625 -2.4749997 2.575
2.7375002 -2.4875 2.575
2.325 -2.325 2.575
2.4749999 -2.325 2.575
2.625 -2.325 2.575
2.7449996 -2.3150003 2.575
2.325 -2.1750002 2.575
2.4749999 -2.175 2.575
2.625 -2.1812499 2.575
2.7607145 -2.1678572 2.575
2.9375 -2.125 2.5874999
3.0625 -2.1375 2.575
3.2249999 -2.1375 2.5874999
3.3625 -2.1375 2.575
3.5166669 -2.1416669 2.5916667
3.6916666 -2.1416669 2.5750003
3.8000002 -2.125 2.5999999
4.0749998 -2.175 2.5750003
2.325 -2.0250003 2.575
2.4749999 -2.0250001 2.575
2.625 -2.0250001 2.575
2.7750001 -2.0250001 2.575
2.9312501 -2.0250001 2.59375
3.075 -2.0250001 2.575
3.2249999 -2.0250003 2.5964286
3.3607144 -2.0178573 2.575
3.5250003 -2.0321431 2.5964289
3.6750002 -2.0250003 2.5892859
3.825 -2.0321431 2.5821431
3.925 -1.975 2.575
4.0874996 -2.0125 2.575
4.2749996 -1.975 2.575
4.4749999 -2 2.625
2.325 -1.875 2.575
2.4749999 -1.86875 2.575
2.625 -1.875 2.575
2.7750003 -1.875 2.575
2.9535718 -1.882143 2.5964286
3.075 -1.875 2.575
3.2249999 -1.8750001 2.5821431
3.3749998 -1.875 2.575
3.5392859 -1.8678572 2.5964289
3.6625001 -1.8875 2.575
3.8035719 -1.8678572 2.5892859
3.925 -1.925 2.575
4.125 -1.8750001 2.575
4.2949996 -1.8850001 2.5849998
2.325 -1.725 2.575
2.4749999 -1.725 2.575
2.625 -1.725 2.575
2.7750003 -1.725 2.575
2.925 -1.7249999 2.575
3.075 -1.725 2.575
3.2107146 -1.7178571 2.575
3.3750005 -1.725 2.575
3.5107145 -1.725 2.5821428
3.6812499 -1.7249999 2.5875001
3.825 -1.725 2.575
3.9750001 -1.715 2.605
4.1500001 -1.775 2.575
2.325 -1.575 2.575
2.4749997 -1.575 2.575
2.625 -1.575 2.575
2.7749999 -1.575 2.575
2.9312499 -1.5687499 2.575
3.075 -1.575 2.575
3.2250001 -1.5821429 2.5892859
3.3607147 -1.5821427 2.575
3.5250001 -1.5694444 2.5916667
3.6527779 -1.5805554 2.5861113
3.813889 -1.5861111 2.5861113
3.9499998 -1.575 2.5999999
4.1125002 -1.5374999 2.575
4.25 -1.525 2.5999999
4.4250002 -1.55 2.625
2.325 -1.425 2.575
2.4749999 -1.4250001 2.575
2.625 -1.4250001 2.575
2.7750003 -1.4250001 2.575
2.9350002 -1.4200002 2.5850003
3.075 -1.4250001 2.575
3.2374997 -1.4312501 2.59375
3.3750002 -1.4250001 2.575
3.5333335 -1.4083333 2.5916667
3.6687498 -1.4312501 2.5812502
3.8166666 -1.4250001 2.575
3.9500003 -1.4250001 2.5999999
4.125 -1.4321429 2.575
4.2750001 -1.475 2.625
4.4083338 -1.4250001 2.6083333
2.325 -1.275 2.575
2.4749999 -1.275 2.575
2.625 -1.2750001 2.575
2.7750001 -1.275 2.575
2.925 -1.275 2.5805557
3.075 -1.2750001 2.575
3.2249999 -1.2624999 2.58125
3.3687501 -1.275 2.575
3.5312502 -1.28125 2.5875001
3.6749997 -1.263889 2.5805557
3.8333335 -1.275 2.575
3.9892859 -1.282143 2.5964286
4.125 -1.275 2.575
4.3249998 -1.3 2.575
4.375 -1.275 2.575
2.325 -1.1250001 2.575
2.4749999 -1.125 2.575
2.625 -1.125 2.575
2.7750003 -1.1250001 2.575
2.932143 -1.1178572 2.575
3.075 -1.125 2.575
3.2178571 -1.1321429 2.5821431
3.375 -1.125 2.575
3.5500002 -1.125 2.575
3.6749997 -1.125 2.575
3.845 -1.125 2.575
3.9749999 -1.125 2.5964286
4.1083336 -1.125 2.575
4.2249999 -1.1 2.575
2.325 -0.97500008 2.575
2.4749997 -0.97500008 2.575
2.625 -0.97499996 2.575
2.7750001 -0.97499996 2.575
2.925 -0.97500008 2.575
3.075 -0.97500008 2.575
3.2249997 -0.97499996 2.575
3.375 -0.97500008 2.575
3.5500002 -0.97500002 2.575
3.6750002 -0.97500008 2.575
3.8500001 -0.97500002 2.575
4.0000005 -0.97500008 2.5916667
4.1150002 -0.96500009 2.575
4.2416668 -0.97500002 2.5916667
2.325 -0.82500005 2.575
2.4749997 -0.82499999 2.575
2.625 -0.82500005 2.575
2.7750003 -0.82500005 2.575
2.925 -0.82499999 2.575
3.075 -0.82500005 2.575
3.21875 -0.83124995 2.575
3.375 -0.82500005 2.575
3.5333335 -0.82500005 2.575
3.6659093 -0.82045454 2.5840912
3.8149998 -0.83499998 2.575
3.9875 -0.82499999 2.5875001
4.125 -0.85000002 2.575
2.325 -0.67500001 2.575
2.4749999 -0.67500001 2.575
2.625 -0.67500001 2.575
2.7607145 -0.68214291 2.575
2.925 -0.72500008 2.5750003
3.0250001 -0.72500002 2.575
3.175 -0.72500002 2.575
2.325 -0.52499998 2.575
2.4749999 -0.52499992 2.575
2.6249998 -0.52499998 2.575
2.7607143 -0.51785713 2.575
2.325 -0.37499997 2.575
2.4749999 -0.37499997 2.575
2.6250002 -0.375 2.575
2.7750001 -0.37500003 2.575
2.925 -0.32499999 2.575
3.0849998 -0.345 2.575
3.2249999 -0.35000002 2.575
3.375 -0.35000002 2.575
3.5500002 -0.35000002 2.5999999
3.6916671 -0.35833335 2.575
3.8374999 -0.36250001 2.575
3.9549999 -0.38499999 2.605
2.325 -0.22500001 2.575
2.4749999 -0.22499998 2.575
2.625 -0.22499998 2.575
2.7750001 -0.22499998 2.575
2.9250002 -0.22499998 2.575
3.075 -0.22500001 2.575
3.21875 -0.21875 2.575
3.375 -0.22500001 2.575
3.5535717 -0.22499999 2.5892859
3.6749997 -0.22500001 2.575
3.845 -0.22500001 2.575
3.98125 -0.21874999 2.5937502
2.325 -0.075000003 2.575
2.4749999 -0.075000003 2.575
2.625 -0.074999996 2.575
2.7750003 -0.075000003 2.575
2.925 -0.074999996 2.575
3.075 -0.075000003 2.575
3.2249999 -0.074999996 2.575
3.3750002 -0.075000003 2.575
3.55 -0.075000003 2.575
3.6749997 -0.074999988 2.575
3.8416667 -0.075000003 2.575
4 -0.075000003 2.6000001
4.125 -0.075000003 2.575
2.325 0.074999996 2.575
2.4749999 0.074999996 2.575
2.6249998 0.074999996 2.575
2.7750001 0.074999996 2.575
2.925 0.074999996 2.575
3.075 0.074999996 2.575
3.2249997 0.074999996 2.575
3.3749998 0.075000003 2.575
3.55 0.075000003 2.575
3.6750002 0.075000003 2.575
3.8250003 0.075000003 2.575
3.9999998 0.075000003 2.5999999
4.125 0.07500001 2.575
4.3000002 0.125 2.5999999
2.325 0.22499998 2.575
2.4749999 0.22500001 2.575
2.625 0.22499998 2.575
2.7750003 0.22499998 2.575
2.925 0.22500001 2.575
3.075 0.22499998 2.575
3.2249997 0.22500001 2.575
3.375 0.22500001 2.575
3.5500002 0.22500001 2.575
3.6749997 0.22499998 2.575
3.8500001 0.22499999 2.575
3.9964287 0.22499999 2.5892859
4.125 0.22499999 2.575
4.2416668 0.22500001 2.5750003
4.4250002 0.27500001 2.625
4.5250001 0.175 2.575
2.325 0.37499997 2.575
2.4749997 0.37500003 2.575
2.6249998 0.375 2.575
2.7750003 0.375 2.575
2.925 0.375 2.575
3.075 0.375 2.575
3.2249997 0.375 2.575
3.375 0.375 2.575
3.5500002 0.375 2.575
3.6833334 0.35833335 2.575
3.8500001 0.375 2.575
3.9916666 0.35833335 2.5999999
4.1333332 0.36666667 2.575
4.2249999 0.32499999 2.575
4.4250002 0.32499999 2.625
4.7750001 0.32499999 2.575
2.3499999 0.52499998 2.575
2.4749999 0.47499999 2.5750003
2.625 0.48750001 2.575
2.75 0.47499999 2.575
2.925 0.47499999 2.5750003
3.2249999 0.47499999 2.575
